0.4455023840972377 0.03277729423158456 0.11169277203452806 -0.019855525850684046 -0.0008678366018158953 0.9998024829699242 3.229545895263173
0.4460045487381234 0.02498630726432735 0.11031316570769953 -0.01887776297948623 -0.00043654015472791377 0.999821703854034 3.187614101671632
0.445936498587111 0.020471350994771466 0.11227435732348798 -0.013253644453482172 -0.000229413099674303 0.9999121402794999 3.174342714993883
0.445847233310013 0.013208406441251387 0.11003659227235564 -0.005377504083137318 -4.6553326960160375e-05 0.9999855400367665 3.1406671190573627
0.44587758701687746 0.014413550118156534 0.11476163634820437 -0.008880926519917383 -3.8027267391296313e-05 0.9999605630714018 3.1459170601593818
0.4457066878323448 0.00973177699635277 0.11565087456093955 -0.006657801715238544 2.155445943558562e-05 0.9999778363602493 3.1325991104250503
0.44589843376837607 0.011953584978546166 0.11881990091971381 -0.013254732702870024 1.049939356393179e-05 0.9999121521167439 3.13853948826339
0.44593082402784434 0.018297095797752863 0.11747380760238986 -0.014965606982905085 -0.00018678131170071676 0.9998879915872452 3.1644974956062857
0.44574962807248375 0.026080173427382225 0.11440576122044235 -0.016645622169618072 -0.0004336910920929576 0.9998613579765062 3.191766283578323
0.4457879919168691 0.024008840147470407 0.11719801814724418 -0.01691328852684195 -0.0003557602049286843 0.9998568968136811 3.183314288172593
0.4453752307336264 0.031266610760593797 0.11682089795914717 -0.01806440822258558 -0.0006793625931743492 0.9998365944603322 3.2155297486450647
0.4449213149615865 0.03660759582382257 0.11479084669007844 -0.017298336969099364 -0.0007825201426284923 0.9998500663601168 3.231574582188075
0.4440899825211221 0.042540004027901736 0.11444088452799488 -0.010995738056130576 -0.000850274838204307 0.9999391835393292 3.310849092319504
0.4445379201750579 0.03864379039559706 0.11940037935319534 -0.01721910161514891 -0.0008918805180803287 0.9998513424948274 3.2547486648580666
0.4449828060629957 0.033970212697203 0.12091017478590627 -0.018112895327272276 -0.0008278012309833737 0.9998356053711955 3.2361562292480124
0.44551469311184416 0.02880086531516999 0.1192721715545412 -0.020486233508736736 -0.000727612525914543 0.9997898703310799 3.2145061616416846
0.4456055244068346 0.02541802273266988 0.12236801496892798 -0.019607794303569355 -0.0005480964999896402 0.9998075984872168 3.198053518196813
0.4458229147137127 0.018496945559399056 0.12166469705710653 -0.016385620393009982 -0.0003035557532874413 0.99986570063096 3.177772833681235
0.44585608870940524 0.012402564376356872 0.12342691711345144 -0.01641067630055391 5.6974864038335685e-05 0.9998653341611675 3.1347170905810318
0.44576247107481376 0.007066078967931913 0.12020089723366524 -0.011167707974194299 6.241471899878022e-05 0.9999376372569471 3.129939034914787
0.44547922211200736 0.002590130149865631 0.11941274621244091 -0.005963512937906609 5.8204233288396075e-05 0.9999822164047252 3.1191864053861735
0.44525694109842673 -0.0030526965146174413 0.11659532451902731 -0.0016161999135169561 1.9089019147361163e-05 0.9999986937658712 3.1048373235955067
0.4449759481034663 -0.008086622466339946 0.11659482067715278 -0.0004256343431274269 7.210852749936355e-06 0.9999999093917006 3.093150447901693
0.444663787297054 -0.015408213527146572 0.11717077544787304 -0.003102919189816902 0.00011261897692834844 0.9999951795931157 3.077072962768976
0.4443229080123902 -0.020074575672068877 0.11558590893888473 -0.0033902232226905903 0.00013943973247197675 0.9999942434549618 3.0633722608060943
0.4437430198562371 -0.028023571483798602 0.11173643926532509 -0.007392482357753294 0.0003829661974384936 0.9999726018954129 3.0433175336022558
0.4432343402526268 -0.03409567919121771 0.10871800759053585 -0.011306255675183249 0.0006660587003914828 0.9999358604172645 3.027358723357645
0.4423592849367421 -0.040385524743224745 0.10623024195751819 -0.007988820325753746 0.0005506569745652749 0.9999679372493396 3.002520670185165
0.44161637975664403 -0.04659495286413027 0.10365864466465238 -0.01589875790443667 0.0013420525617820118 0.9998727060941395 2.9775815645386112
0.4361603502149494 -0.060602175729278396 0.10117723894401422 -0.016103092785679115 0.00721741448273448 0.9998442875422754 2.3105535387333753
0.4298262923459407 -0.06564549477539554 0.1049626749838331 -0.017357935823793972 0.010016198133279102 0.999799168752851 2.103394578854446
0.4195100081681471 -0.06865373746483724 0.10188192454286882 -0.014317216907548077 0.012106466806796622 0.9998242099296646 1.7113278300939359
0.4125751426627237 -0.06882595596051207 0.10080558816421402 -0.01218055049612072 0.011433399771792752 0.9998604460419812 1.6200538475391317
0.4068771493078622 -0.06878314439487741 0.10261603157904543 -0.012532368421528751 0.012374447976054548 0.9998448943606378 1.580877256635553
0.4017387944007552 -0.06860136461707157 0.10450357795991526 -0.01123980928865509 0.011403424423288235 0.9998718060824482 1.5550021740032598
0.40335444285546657 -0.06856881810540454 0.10788896723083839 -0.009594914660174295 0.009729964440156832 0.9999066283431954 1.5561271035300424
0.4077394460552152 -0.06868434107374975 0.1074373360664772 -0.01257354706406285 0.012530635698228338 0.999842432127796 1.5724332244003654
0.4138313697894897 -0.06857514327656929 0.10622371873191953 -0.009904877879445901 0.010000869428016776 0.9999009330953126 1.5589427104046032
0.4120562233090135 -0.06850345562162655 0.10927276529023056 -0.0090649186384476 0.009103334608011734 0.9999174748693479 1.5662617544338209
0.4071045338445656 -0.06827612456272779 0.11183633437888214 -0.0009470217227481922 0.000963506357520051 0.9999990874022614 1.5708924427078907
0.39974853993892684 -0.06840560043828253 0.10936432144561464 -0.008397144368841538 0.00871173080532028 0.9999267941768658 1.5433759224385297
0.3951768890880863 -0.06815574530321189 0.10739364595561116 -0.005626571958042248 0.005919736193245633 0.9999666486495453 1.5209709458620984
0.38806321898252505 -0.06782502014128428 0.10576449961243516 -0.013116356809526747 0.014007301743743183 0.9998158613874382 1.5083424965715284
0.38527683712997485 -0.06761116862164997 0.10851834237248943 -0.012373532043410683 0.013017217190378162 0.9998387108736034 1.5214557488467026
0.38965350778187724 -0.06795108821322327 0.10932515099179978 -0.011415861075777727 0.012229656669283419 0.9998600470134057 1.501403953276895
0.3852382189751431 -0.0672189056583397 0.11348628654222122 -0.002090041753110116 0.002241719084132229 0.999995303199479 1.5037950085946725
0.390972270928788 -0.06747645304493835 0.11488013086241307 0.003574473953043912 -0.0038051542877306143 0.99998637187554 1.5071863158090362
0.39537833446290327 -0.06794413254844929 0.1139191343531733 -0.0005458404049047768 0.0005666335264661321 0.9999996904923016 1.5125539073778216
0.40109385994971414 -0.06822392630366367 0.11286717707966042 -0.0017691842666336182 0.0018104880179068597 0.9999967960549512 1.5364969059178812
0.40990717017824735 -0.06848198888226953 0.11349195289112725 -0.00860440028870489 0.008540956682828274 0.9999265054765843 1.5679423502141798
0.41565989751388266 -0.06813107922618077 0.11246205384601317 -0.001676809108219445 0.0016446565545144764 0.999997241704212 1.5500904280136214
0.4158603278315114 -0.06827748340267059 0.11871273488484253 -0.007143568903717049 0.0068658745181189584 0.9999509133904622 1.5936284140953625
0.4116155507875865 -0.06811739042288023 0.11936653943182446 -0.0004452544408360296 0.00041154464131034306 0.9999998161897287 1.5942375105397188
0.40664926346478714 -0.06811706699269418 0.11830210435844306 0.0032670612127264674 -0.003284281474261998 0.9999892698455471 1.5739793303077583
0.40131397663099044 -0.06818843516183179 0.11841718638646621 -0.0008019727577700287 0.0008512859536723459 0.9999993160757266 1.5502987224864324
0.3962923929833639 -0.0678526784863008 0.1181390102298568 0.0030278839840267562 -0.003185849931136966 0.9999903410927505 1.5260730930882962
0.3914112597997067 -0.06772030902630362 0.11937466229808266 -0.0022615282023983356 0.002508213010828919 0.9999942971625798 1.4948676473613955
0.38706172263541627 -0.06731783458960974 0.11797813786216906 -0.0020030818030671014 0.0022339258015889934 0.9999954986092703 1.4962701094340172
0.37793568009703765 -0.0661694050772959 0.11817711841225575 -0.0029934097551564693 0.00436396416254025 0.9999859975593786 1.2411393803210555
0.36590599351061154 -0.056324206814227326 0.11450851019533627 0.0018107332413538416 -0.06588554934138414 0.9978255436864266 0.40334443956864
0.36286589164795463 -0.04849338838635917 0.1204315797121318 0.00847218400452855 -0.16151347950433717 0.9868341390713008 0.19135868561985306
0.36211396983008304 -0.04027255636298354 0.11762544736798773 0.014587337968865518 -0.34530348979086317 0.9383777008802124 0.11406652673970515
0.3615046286598808 -0.03358711727836358 0.11664333581865975 0.01767842731200121 -0.42367029735200856 0.90564394347306 0.09834055075694136
0.3612663772157309 -0.028490816008907537 0.11598195827178431 0.01807214703043961 -0.5403111065281551 0.8412712438114303 0.0815070287104698
0.3608042341490258 -0.021445324184441304 0.11529480417226334 0.014894823253685033 -0.6771947013513993 0.7356530980712517 0.058736577741332896
0.36059756746865324 -0.015538361833100086 0.11449962656293595 0.010420055083617137 -0.7907489527553206 0.6120518900946372 0.038843741671769356
0.36086589075962516 -0.01078674315268006 0.11535449265801605 0.0009119933503264036 -0.9970148108609083 0.07720515003622531 0.05122835235880656
0.36078775733670343 -0.014923783099988784 0.11810472026889028 0.008602703553089843 -0.940998144560609 0.3383023579951356 0.05561036664146697
0.3604875342889297 -0.01921848524193661 0.12003604260341198 0.00967342389401227 -0.7686820074694338 0.6395579694311752 0.04266761018167251
0.3607546010821319 -0.023913466651441218 0.11957723526667197 0.014977460146528152 -0.6432507833162885 0.7655090498815417 0.060438606391280764
0.36092108407528406 -0.02933425301899935 0.12036161591712283 0.014900524570943941 -0.45319244057530594 0.891288161131353 0.07520063939400304
0.3612891034841129 -0.03504890049120145 0.12078639822927648 0.012406501725168977 -0.2894675552127442 0.9571074198824813 0.09250783921473228
0.36202335350550696 -0.04206496988667434 0.12108093760901516 0.01504396468326587 -0.2702915625837114 0.9626609737195458 0.1154321993090834
0.3616543889726333 -0.038713121689848286 0.12413201316952395 0.016505556472362123 -0.33750909228424897 0.9411775492599681 0.10416183696653625
0.36079460694458604 -0.03350727796210135 0.12470871996286896 0.00844962333635831 -0.18114034264389073 0.9834209577451191 0.09059392891709891
0.360271347114542 -0.026853261160106022 0.12429345530548305 0.006264997532381811 -0.17819665053223427 0.9839749506694832 0.06420183989538583
0.36029583295379275 -0.021664988471075033 0.1254113847315271 0.011398742367473002 -0.5748080388785748 0.8182088896565515 0.05268274079834407
0.3603610302578099 -0.013313487855733358 0.12267039528277854 0.005226346316533553 -0.9429197535190729 0.332979013944889 0.04399784286620319
0.3603369337340347 -0.008240625631643248 0.12004759865665496 -0.0027089461351759696 -0.9725493781553044 -0.23268083002380657 0.03134096281444727
0.36071781659964286 -0.0026115474166544545 0.11800904198287089 -0.010313224347858354 -0.8913955159075653 -0.45310889598796905 0.04881940365661911
0.36099417104957027 0.003409396936326432 0.11909567406167504 -0.01735391804952354 -0.746297995991465 -0.6653857097259104 0.06801249488900674
0.3607813577482746 0.007842870413161982 0.11789007227280754 -0.00814034190583365 -0.32148637073013464 -0.9468792152478702 0.06460093508581076
0.36100452547274875 0.01015140534037032 0.12151981947436553 -0.013735184637721729 -0.3746685717118653 -0.9270570673234517 0.07989898494053732
0.36125429739500625 0.016055981861259894 0.12293483248410199 -0.0062738003096777855 -0.14603912940361233 -0.9892589206637002 0.09659785868286812
0.36185880278665183 0.021396937415332183 0.12389338254535928 -0.008870153206129347 -0.15648227436021506 -0.9876409358634108 0.11599517008962405
0.3630847676334806 0.028474319059096292 0.12457066256568373 -0.01771215404792831 -0.23685235915016417 -0.9713841874171023 0.14816309827585314
0.36376911923058025 0.033412835828677455 0.12664989520532913 -0.015675391310092986 -0.1883607978815415 -0.9819747919008432 0.16866791913936294
0.365291276682538 0.03920098529575518 0.12438048874081672 -0.025134979294203413 -0.20730965931356318 -0.9779524211183152 0.2384320776384852
0.3696195637672946 0.05180836080373279 0.12018069781841517 -0.021207958945084263 -0.06353196472980781 -0.9977544346856866 0.6646165309728261
0.3681322573015386 0.04934527905215796 0.12453608027617907 -0.02637212758378643 -0.12844784532250442 -0.9913655541316283 0.42937589495805667
0.36624931166275015 0.04561511355331923 0.13088806909037734 -0.02513357864258868 -0.1744129055476514 -0.9843517875246851 0.2913735771501096
0.36509877267354574 0.040447353385886085 0.12934066461599758 -0.020608360011778157 -0.20588895281467764 -0.9783583365038091 0.19426395296903431
0.3644084670787858 0.0363218377494608 0.13065829040181928 -0.02418774629196821 -0.26487680679858866 -0.9639788535800452 0.18733942962299605
0.36346173516474545 0.03175952359128631 0.13084648808317856 -0.019924917080314717 -0.23689094565830487 -0.9713319090529542 0.17028256156424837
0.36268812978255005 0.026945861055828357 0.12889756875933844 -0.017160240093818988 -0.2231873297740499 -0.974624513332315 0.1547142381315437
0.3616269760253551 0.01866891406226278 0.12799274108364445 -0.015934562148473993 -0.2521829728017424 -0.9675483646609154 0.12754723525989742
0.3611272459902286 0.012902941079096402 0.12600314419000092 -0.01558370728350144 -0.3204805271329662 -0.947126907967395 0.10105383034239289
0.3605794463699049 0.0054387258199990315 0.12437348022928385 -0.013788012236077023 -0.4091005401273839 -0.9123851373110263 0.07056409725772235
0.3604583975983249 -0.0023841135296116837 0.12206095439764308 -0.013978969308962922 -0.642766634397428 -0.7659344894457111 0.05740842691138046
0.36047353133753296 -0.00017568261474171313 0.12450833975005449 -0.013736690229351117 -0.6876273390928362 -0.7259338440062212 0.0557111095644639
0.36039845144001764 -0.0047113692457320545 0.12573252689500033 -0.01196666742776037 -0.8314077478702769 -0.555533937443922 0.05252570053069403
0.36008308155845914 -0.01037918092667589 0.1265919532903936 -0.005065667565532071 -0.9774938159790381 -0.21090324496046536 0.029885170326755535
0.3601931342993405 -0.01598722179144328 0.12672643325671 0.004998870006584812 -0.9610318932105755 0.2763923145291022 0.03832061309340202
0.35968381985049624 -0.013017903436287474 0.13069264676786455 0.004274103657131282 -0.7985497725149447 0.6019136091286341 0.018358236139585753
0.35978390587899267 -0.008019505858407747 0.1308931529949207 -0.00361314063922526 -0.9158086051341869 -0.40159873502900384 0.018973013979454476
0.359826119613183 -0.001755580320042798 0.1305953095524545 -0.0048528782391028475 -0.5040909080309627 -0.8636369642467349 0.026843072769769702
0.36034272286887126 0.0028976905164613377 0.12881626010166378 -0.013111458368481066 -0.605037657607354 -0.79608889110228 0.05077654140655734
0.36043351221630815 0.007595503631461945 0.13059373401626442 -0.007953183874408038 -0.2841540283936975 -0.9587456571030158 0.06247628500330363
0.3611292269432068 0.014361771861594201 0.1321104279342914 -0.01672334066545851 -0.3904064565976042 -0.9204906998573587 0.08912638048196588
0.3616768900151471 0.01923094385258615 0.1314746729532696 -0.017314297090688407 -0.3192774482037207 -0.9475031008839896 0.11323603122905546
0.3619809155202222 0.022875868381447326 0.13412045940130357 -0.01648665076223605 -0.269304218554148 -0.9629140295039759 0.12746737884464943
0.36265596517595705 0.028182411734722662 0.1366243071533227 -0.01791056601608347 -0.26529764201477807 -0.9640001933435397 0.1399977549365028
0.36382942827639403 0.03538278632017567 0.13640245570532214 -0.01875222437538225 -0.23562792356093717 -0.9716624083082233 0.1638401217591924
0.36483088038287736 0.03928201439693479 0.13361185951082852 -0.02461304331839877 -0.2698625098075053 -0.9625842424946508 0.18707035896322313
0.3648363845083485 0.04047925889986376 0.13753617171317237 -0.022842798913435835 -0.2894503981507552 -0.9569204112924803 0.163358458870617
0.36335666990763543 0.033510428016252654 0.13890630151055727 -0.016944298368057595 -0.2066350811091111 -0.9782713498860351 0.1672635083728992
0.36371715536601784 0.03587747768536699 0.14185798525425947 -0.019122175344079537 -0.23334924632352258 -0.9722049535207863 0.16840116813778683
0.3648309829276502 0.04193288803430808 0.1426549967937942 -0.02092282924616455 -0.2373403211929194 -0.9712012186732355 0.18105864224776974
0.3709788816840172 0.05512682160642889 0.1365766174230302 -0.016161448568982904 -0.036023111518563806 -0.9992202675169642 0.9138814061953183
0.3801503372589574 0.060836438810260796 0.1302091300380427 -0.009467288533227244 -0.015750382844477454 -0.9998311336861245 1.1880999474962635
0.38762385337139255 0.062470526855131304 0.12246211904182983 -0.004560927104210683 -0.006279301218693438 -0.9999698837065819 1.445381349895757
0.3958718805650264 0.0628583373023373 0.12080833748847208 0.007659949730007366 0.007071398628174049 -0.9999456587693029 1.5344640482799843
0.4013969169780245 0.06289319447270497 0.11980965971003549 0.010823951379743397 0.010523535820351865 -0.9998860421419867 1.573394541978537
0.4058914295548031 0.0628884337029553 0.12132741456801119 0.013432004148208956 0.012957721033444914 -0.9998258241964858 1.5975909881094161
0.4115345074002528 0.06266115845057871 0.12111646442688923 0.013870339791692858 0.01315478212425969 -0.9998172659948047 1.6198205258643927
0.41674611293705555 0.06237648024002959 0.12136830199050126 0.014909858193284367 0.013975226814969715 -0.9997911727776588 1.6336697625857017
0.43180714005915416 0.05946640164404047 0.12249007060415339 -0.011471832590249424 -0.006667853238051861 0.9999119645199858 4.150284312305474
0.43823646167386293 0.054651117852051866 0.127970612942003 -0.0167999057925529 -0.006155774162673833 0.9998399219924257 3.87259089659355
0.4389155986482531 0.05349543615039503 0.1325502666694015 -0.01418964930807489 -0.005004479934294722 0.9998867981092164 3.825840249290743
0.4436226719321244 0.04395557155156574 0.12634144988358909 -0.016620413583798132 -0.0019370651817020531 0.9998599950146948 3.4054441494659904
0.44456502189473984 0.036034944173192446 0.12742285710871848 -0.019240416407136383 -0.0012518217129040988 0.9998141023804771 3.28821900779134
0.44515579225102786 0.03067597097041416 0.12437449317371471 -0.018780258181645568 -0.0008789243217426548 0.9998232490768894 3.240314141851819
0.4451958677683105 0.025955557507723975 0.12644020170997666 -0.013517661337528727 -0.0006302029600965639 0.999908433645898 3.236402970816945
0.4451144489668098 0.02889372364788968 0.1286353161442124 -0.019174349638707382 -0.0007272024321774748 0.9998158907981785 3.2198250033510365
0.44557019832510575 0.017642097921571506 0.12677488117501973 -0.014186148318046278 -0.00025198773376524595 0.9998993397828004 3.173238174578298
0.4455759880376301 0.009377177513208384 0.1270516109932639 -0.010800916291976282 -3.502753855425296e-05 0.9999416677888391 3.1441602585292294
0.44560754732301733 0.0014901570334664022 0.12376606783318465 -0.01060804707116755 8.543190251609773e-05 0.9999437294361748 3.1252614936168355
0.44516321543789256 -0.005088098849814369 0.12195078506966218 -0.004191479954456656 6.261517057155824e-05 0.9999912137489667 3.0984699633248445
0.445040509524242 -0.010207421679754292 0.12126882601955963 -0.006634255115039055 0.00017482292074705929 0.999977977805519 3.089032696562796
0.4445837356616211 -0.01835974866954183 0.1214837373621309 -0.010143706518957605 0.00039888301890699565 0.9999484717276157 3.067135096980603
0.44403175118105215 -0.025132021899644356 0.11681202471512965 -0.009014449867678772 0.0004256800024968268 0.9999592784159355 3.0489851966194212
0.44329811029983307 -0.03269673910696001 0.11353723078040624 -0.010929145953553486 0.000645083038487309 0.9999400670223189 3.027285261217619
0.4422784306292358 -0.04024263765912554 0.11399170227307112 -0.014034030376528164 0.0010961077937441178 0.9999009173608628 2.990032009671566
0.44184030626375365 -0.04467179822596289 0.1118549813179674 -0.02153249632327534 0.001925014239426743 0.9997662956522719 2.967029441699311
0.44122696877309087 -0.0489752568956636 0.10965643709938563 -0.022966470305353013 0.0022112150739956953 0.9997337904510429 2.951500014300158
0.44096116125205903 -0.049273024121023995 0.11325740421450219 -0.022211910128804323 0.0022517973364911763 0.9997507491656035 2.93999713117283
0.4411848759752559 -0.04739147858658509 0.11795431847480708 -0.02323207938295369 0.002319052532333713 0.9997274090885457 2.9426662934563055
0.4420050333531526 -0.042766068606207006 0.1184338941382983 -0.022803634089083584 0.001996065462605634 0.9997379706678146 2.966866964247428
0.4428714974090743 -0.0364421207250661 0.11743627510913165 -0.016719750768085313 0.0012943235094466164 0.9998593774431013 2.990152466797469
0.44356328113647303 -0.030952657042176892 0.11879224299903063 -0.016236906611447582 0.0010919164463490377 0.9998675765230941 3.0079927287807857
0.4439691876488744 -0.025627781270324508 0.12075083148968263 -0.011686398900297925 0.0006667266499774346 0.9999314894313096 3.030584472341556
0.4431474620070258 -0.02999942153828983 0.1226463146430504 -0.001371759019062358 4.542726909011117e-05 0.9999990581063348 3.0037811012366507
0.4425404292535001 -0.03772993845768538 0.12084323314210436 -0.016524709538530344 0.0012889627406366111 0.9998626268391674 2.9898999652146734
0.44221263122521 -0.03893625446397766 0.12507168834077137 -0.017264752889685944 0.0013975569281869892 0.9998499763175926 2.981356111787528
0.4413103715221912 -0.0444684228187854 0.12413635588812233 -0.01823036655314558 0.001620278294478398 0.9998325001886997 2.965328560825699
0.4371471944495957 -0.05778323053484713 0.11790450819620489 -0.012501450793662232 0.0037048091029664603 0.9999149904454698 2.4902450505319234
0.4394093323415767 -0.05380441374885317 0.12131775350276197 -0.024237354455948608 0.003276549229711587 0.9997008626954974 2.806016501581986
0.43470826228411164 -0.060754238368799715 0.1257031499226185 -0.019748763740731836 0.00770763353269083 0.9997752641049079 2.3420538281764554
0.4326980247967537 -0.06215275067682431 0.1317156770975028 -0.015143063107723165 0.006356967635402113 0.9998651292060334 2.32550097473246
0.42201496943347416 -0.06755487569334304 0.12931879055405704 -0.01046814331910119 0.0074312415497929975 0.9999175939168584 1.780131136094184
0.4164882802337344 -0.06805188590680687 0.12487654533506344 -0.003950309907268745 0.002991301144165966 0.9999877235091946 1.6746584728123588
0.41071588605022963 -0.06829891254504415 0.1241269684395492 -0.004764603075280135 0.004429975080404095 0.9999788367152188 1.611627715036378
0.4048985533153128 -0.06824161126965893 0.1227731332445099 -0.001890663528926023 0.0018095939395280408 0.9999965753747332 1.573860432819465
0.39980771165517 -0.06820791836088849 0.12269105388392093 -0.003517448441752907 0.0036163221825499642 0.9999872748042006 1.544067543074722
0.3946600412044516 -0.06808348748521173 0.12397561040097223 -0.009577878227700709 0.010267892232443645 0.9999014124591276 1.5095812892304534
0.38812926719908114 -0.06745161027994515 0.12236113157890383 -0.004154453931769832 0.004488193379417923 0.9999812981414791 1.4918383329821336
0.3844378477108356 -0.06709679613005498 0.12471518787243918 -0.00414171720932648 0.0045255856814075835 0.999981182449349 1.4830002971003815
0.3895682832764331 -0.06756228431638203 0.12609951928985738 -0.004513941131733077 0.004868581417625723 0.9999779603823471 1.493231669664944
0.3990530070055825 -0.06816046569409691 0.12674221963958499 -0.004662029893238561 0.00485374249626482 0.9999773530740856 1.526841822234936
0.40546877946425175 -0.06831496858526258 0.1271241644262683 -0.00578702124205979 0.00582951218938739 0.999966263017297 1.559481109703434
0.4118673804534711 -0.06821617175278549 0.12762830845656065 -0.006547468392570803 0.006320302561032695 0.9999585913592549 1.602597466547782
0.4105111319009363 -0.0681899389670871 0.13140166767558362 -0.00407600963862873 0.0039641222564071685 0.9999838358094405 1.5969098075019148
0.4028457819330015 -0.06830900521890564 0.13185060049292052 -0.007219505709543959 0.007369950044351073 0.9999467798706357 1.5579974013263498
0.3968435343564528 -0.06805813305689543 0.13088846871645093 -0.005716317417768379 0.00598323828779443 0.9999657617012548 1.5263116002188304
0.39084561240557325 -0.0676299058179402 0.1306304590981738 -0.005172136584546363 0.005565130528017668 0.9999711387461925 1.4985758577946942
0.3846977076096049 -0.06726544873451269 0.13121638060370294 -0.013126955117806935 0.014946661914284325 0.9998021205953482 1.4518142325219006
0.38205038388971685 -0.06682238209818882 0.13453339141597834 -0.008055684048840547 0.00894837965975578 0.999927513600846 1.475406897201303
0.389200591676012 -0.06752526656667734 0.1356638106654464 -0.009860627897306122 0.010797592486435248 0.9998930842914995 1.4811498364864921
0.39493146955171105 -0.06802190974052327 0.13526754130753196 -0.011079923707643623 0.011986088707640483 0.9998667756096935 1.491433504647473
0.4001977477571407 -0.06830148707894493 0.13615686124180046 -0.011802856726617959 0.01228431092707714 0.9998548836096856 1.528636830486237
0.40515491851780017 -0.06832096461640146 0.1366190699727751 -0.010106905846098432 0.01025011249407891 0.9998963874562588 1.5572806462877982
0.4135922420585416 -0.06827628271057556 0.13456289388630197 -0.013825172121443382 0.013726860092969377 0.9998102009520611 1.5759398690730133
0.4124650924025325 -0.0681605850738078 0.13760383022023923 -0.009057586243211123 0.00874614260167891 0.9999207294186064 1.6122050377690536
0.41627137283572446 -0.06803699963816742 0.13948619706125456 -0.011253215606928461 0.01086658094790225 0.9998776337917589 1.607284832274708
0.41364003874673255 -0.06809161654588929 0.14201516286823704 -0.012330845302709338 0.011517077012094385 0.9998576434629173 1.638584601895075
0.40898954329742043 -0.0682729689004359 0.1408512340379377 -0.01162721126656064 0.011256477001264288 0.9998690412667466 1.6032648583508762
0.4008397798191161 -0.06813641588170186 0.1407785730690554 -0.009924984198297933 0.01011128325201985 0.9998996232820877 1.5497888521380871
0.3952582718895464 -0.06793506054851314 0.1407173115172462 -0.011198479786010303 0.011837103116069123 0.9998672297061756 1.5172080532041488
0.38657637839683195 -0.06728368581383647 0.13962421876193454 -0.012117216828770752 0.012981629468865533 0.9998423127436934 1.5036897254209978
0.38876849855216317 -0.06736455439592921 0.14186772317806895 -0.00994762402848963 0.01079568744853215 0.9998922431485812 1.4883322829670738
0.3743849138168095 -0.06451445569538702 0.14098111099009883 0.0025162258298775863 -0.007939257261408508 0.9999653177994277 1.077678720759253
0.364340754984506 -0.05460178172935476 0.1316279825513336 0.005974032441831093 -0.06920085395093296 0.9975848599236286 0.3969582084882492
0.3622278200546226 -0.04551426415035184 0.12679778033037234 0.012119472629274233 -0.1766292652975384 0.9842028353056295 0.20122647633186447
0.3615452005245958 -0.04122996770787384 0.12948252168978705 0.011563255451148611 -0.2088172160632717 0.9778863233520328 0.12522645914973665
0.36062879334184605 -0.03252240793060314 0.1311581366355787 0.009643299647173292 -0.21586170686936432 0.9763763261567536 0.09087348847907746
0.36058169319490574 -0.0283516060574052 0.1283829463800512 0.013171410843057754 -0.391919294016427 0.9199053108413218 0.0751251152395898
0.36037914363451434 -0.02628749375647145 0.1319074287108449 0.014616647653889266 -0.5086309560639902 0.8608605602214525 0.06775219997452017
0.3600750553364206 -0.019694538763646845 0.13167867386618615 0.012740395447249966 -0.6822609998347451 0.7309976815478566 0.0505589506590897
0.35988256380587286 -0.02034218605345843 0.13560618818117828 0.010679245658825772 -0.6556200023766967 0.7550154741432383 0.04223091712525348
0.35955390788820946 -0.014151937190910503 0.13647606833600076 0.007438755111473732 -0.7952165485753814 0.6062798906398345 0.018562864876393827
0.35968297762471296 -0.008332928242929097 0.1360253483208463 -0.0038292496565747168 -0.9449001536841586 -0.3273362742115832 0.023778314290896326
0.3598549426423219 -0.0035394351159526846 0.13521883214791722 -0.008936184968697256 -0.7319026476826613 -0.6813506137909582 0.03519073677565732
0.36000814873398895 0.0015704217293607211 0.13425726725218612 -0.0090570997465163 -0.46455391663864515 -0.8854985191855921 0.046049170289980686
0.3604051349051002 0.006987993379574968 0.13493387722441447 -0.013290595993699911 -0.4252423308209317 -0.904981944646474 0.0677666783369752
0.3606450512748018 0.01158755889397558 0.13548423578769506 -0.01036297148947192 -0.2728154770608998 -0.9620105635064211 0.08071101750172602
0.36121349010654413 0.01711599908426942 0.1373251383273944 -0.015209592496442999 -0.33071430264002194 -0.9436083500719014 0.09656154568984653
0.36063360466861544 0.012303008542016962 0.14052758173392604 -0.012022117011914243 -0.28892284456189715 -0.9572768975551502 0.0851216392562904
0.3601618633489932 0.003577846450203886 0.1404243221005766 -0.014083001844344717 -0.5257452981563187 -0.8505254555423818 0.06494536155002224
0.35968931330371745 -0.0030078540953267217 0.13949499661980613 -0.009176857281794255 -0.3820770678135284 -0.9240848984489716 0.048304458681307956
0.359633217224854 -0.007615053015237161 0.14070427645659905 -0.007780338472557612 -0.7845850555492613 -0.6199723840156228 0.03462115759018922
0.35969347538423857 -0.01561482887501591 0.1409685286202774 0.004452660516567699 -0.972565904768417 0.2325848978251055 0.032936021574701886
0.35986738622768843 -0.023541804263061003 0.14043958791711528 0.010193493832706428 -0.6462847863163617 0.7630282220596413 0.0440657759926177
0.36008367324088714 -0.028051233503743778 0.13715566249662628 0.00897772367518985 -0.35107443358642476 0.9363045137985736 0.05975063421993616
0.3606192070362758 -0.03380434164307357 0.13668832434912645 0.011915158886791557 -0.3121541871856185 0.9499567318626614 0.08087885598134097
0.3614458384741374 -0.03963319195448239 0.1341553820536128 0.01793093892047723 -0.3439700841243497 0.9388093856885528 0.1083345648649673
0.3617308105064912 -0.04438938022603716 0.1365300083723633 0.01668746801578082 -0.3317579368505659 0.9432169420381921 0.1054757592458591
0.3610049617087035 -0.03862057536144121 0.1390185010795677 0.015194606414715728 -0.3413136790032883 0.9398266310661463 0.0930932974689845
0.3612508115243742 -0.042155130834913346 0.1408732085987346 0.015149802840035115 -0.2934724310929556 0.9558474855657143 0.1079483093944728
0.360710712178982 -0.03473544437965591 0.14121327114377522 0.01673292058042895 -0.36964592669482244 0.9290220117127338 0.09749799800847765
0.3603680745102454 -0.03115609711077117 0.1439949675429389 0.017024906395000313 -0.4792231490348554 0.8775279630822931 0.08135698679870983
0.35996435436674756 -0.026610907244038997 0.14449974544244962 0.01466078141478764 -0.5068886514800273 0.8618868582877147 0.06513994758482138
0.3596822533152756 -0.02093111459585282 0.1443437212803201 0.012397603897783032 -0.6071882080231709 0.7944613140079285 0.049029804112847214
0.35950522934747237 -0.01684975935751144 0.1477533944917468 0.00900629679182541 -0.8317306087344599 0.5551063691872957 0.03766851859815444
0.35931496051433226 -0.01041479688469249 0.14544854471739294 0.004944487011662283 -0.9932496272217599 -0.11589102671055529 0.013708863022127484
0.3595124248292953 -0.004654065763750122 0.14454269561414337 -0.007858353688726293 -0.604209524361742 -0.7967867324120428 0.03305386354520229
0.35958236561075024 -1.845152448047077e-05 0.14579015448970983 -0.005843309091379536 -0.33900346825433564 -0.9407669765943073 0.0399906785047512
0.3601769912010596 0.007207289627669547 0.14383032337650378 -0.010798767621706565 -0.3510313956677692 -0.9363014182801339 0.0637986787301239
0.3603961448029381 0.013241024535497836 0.14484206902913013 -0.005774724982424401 -0.16451769384097514 -0.98635722786657 0.07703217054918979
0.36115790004128034 0.019835133117015097 0.14428048571672633 -0.010762677369616298 -0.21492209588048766 -0.9765718905836764 0.10066532901453554
0.36182636439788834 0.02424094035375478 0.14107289536599102 -0.013161640707053349 -0.21844686134692082 -0.975760083207741 0.12170245118964294
0.36204173836938247 0.026488630417152364 0.1443017950722321 -0.01268771844120977 -0.19928607276865049 -0.9798592159086961 0.12947470569300512
0.362714825534095 0.030593966610843713 0.14533928176552446 -0.017230543185047072 -0.23814815601451175 -0.9710759826957085 0.14752939266700843
0.36363282769802824 0.035924245502475645 0.14635225798151924 -0.021473461484164298 -0.2726313411506804 -0.9618789124802921 0.16238436446450058
0.3642215127591752 0.03984463065551356 0.14782167833989682 -0.02017394926736584 -0.27215142829164385 -0.962042936593672 0.15345950224841484
0.37027336056061333 0.054416732097441606 0.1408219343306482 -0.021536115901399998 -0.04397479633408781 -0.9988004870840107 0.908346461232861
0.38537224787599517 0.06251699917367992 0.13411330730963583 -0.000784485153133424 -0.005653421469778904 -0.9999837115717082 1.3927367443454661
0.39167945582675995 0.062888653063375 0.12869758139000648 0.010541843786644469 0.00926346802363383 -0.999901523996115 1.528408832375926
0.39598355108429073 0.06298211353096654 0.12629860806439136 0.014837438837532937 0.014321350727590292 -0.999787352051465 1.5674313372066013
0.40049898882931756 0.0629931140479086 0.12518817969654747 0.018740988782463688 0.018321008944107226 -0.9996564989888904 1.5842651655889508
0.40515963990382226 0.06306265361564407 0.126715251237404 0.028726902433181586 0.027799797838374225 -0.9992006486771012 1.6006391785831202
0.4104672534950229 0.06284918176598006 0.12600503930341306 0.026592791244099082 0.025524689578634623 -0.9993204259274211 1.6114979387888857
0.41535827629846367 0.06231435087894719 0.12782201739442134 0.017141139821150366 0.016558276041430946 -0.9997159620713113 1.6035498959296828
0.4197491081013194 0.06194589941192221 0.1260352321432377 0.01005295499280105 0.009660273154756862 -0.9999028038857016 1.6113184075258216
0.4193515734118424 0.06178879062396522 0.12961385490611466 0.006838841151028494 0.006647501977100619 -0.9999545194503474 1.5972734984856543
0.4105427301143757 0.06255317190313421 0.12963360020000958 0.021313093314628714 0.020319989792655382 -0.9995663309996934 1.6151030612653818
0.4143832303296094 0.062073078962562235 0.13198808596106965 0.01013069533093212 0.009756778318628166 -0.999901082252116 1.5997804030730227
0.40664754668513836 0.0625250853690505 0.13178787968852035 0.016076813430109547 0.01544147604608794 -0.9997515175719673 1.6092628954452275
0.4021673164346149 0.06258191258156263 0.13205060212344896 0.012908410752649655 0.012375498928282014 -0.9998400971946049 1.613156393312042
0.3976847582958636 0.06283567533912918 0.13114976192710234 0.014341925955863057 0.01385114509694655 -0.9998012077105028 1.6068792658757722
0.39921083972275817 0.06232524492001685 0.13500827491898715 0.00034245196229328885 0.00035416711375866526 -0.9999998786461471 1.6114271377753808
0.4042127702599688 0.06206228538810641 0.13544372638045638 -0.0016159776255423096 -0.001554624550219926 -0.9999974858762504 1.6092938549137057
0.412246695340334 0.06169590061278483 0.1355033099750582 -0.005219556006950981 -0.005155694474022428 -0.9999730871626399 1.5911655628307506
0.4169612940496708 0.0614925301859394 0.13599288496619374 -0.007768124118598582 -0.007635412884990489 -0.9999406765992439 1.5915164817255567
0.42618143845932405 0.06074151311278157 0.13652174716874668 -0.007617312763804585 -0.005840344301967959 -0.9999539324012345 1.8379095082788022
0.4228066037696045 0.061169396884880184 0.14024272692245748 -0.014556682178609422 -0.01358600248285838 -0.9998017421171491 1.6676595972176431
0.4137226803237246 0.06119285926723007 0.13973454247921077 -0.02357967891161777 -0.022747625817897747 -0.9994631280152729 1.6182323623208934
0.4085741306712571 0.06116470376050671 0.13785797958799695 -0.026031576717210445 -0.02488113314807678 -0.9993514327937314 1.6191321369941805
0.40298306991318916 0.06145939777874694 0.13883673452350273 -0.026002812267406174 -0.025169763611402718 -0.9993449538342264 1.6042503853561865
0.3949201405485019 0.061873977860009206 0.13620813306459506 -0.016176268680200872 -0.015569815953267776 -0.9997479228099287 1.6102817634576043
0.3972775309942366 0.06162968575376748 0.13879826279062332 -0.024828214231544365 -0.02397095224876432 -0.9994042991834488 1.6071528468922283
0.3936028181088066 0.06192480119496749 0.14052753709107185 -0.024057642280665908 -0.023227434150375603 -0.9994407016680307 1.6066772166747458
0.39701753885706187 0.06179881082104807 0.14303918047712263 -0.03008986424459725 -0.029328953671947666 -0.9991168162663715 1.5981709432202544
0.40511779092633404 0.06120550026430119 0.14122001118763192 -0.03476584512847015 -0.0335943418336271 -0.9988306944669195 1.6062903012415917
0.40814551265282906 0.0615099266556913 0.14467076174948262 -0.030476739444123976 -0.029327918054036534 -0.999105120382971 1.6105892492554559
0.41617975991885137 0.061182656530916105 0.14307230927695383 -0.02704705994526501 -0.026048028344943828 -0.9992947296807175 1.6095141060623044
0.41292441989411244 0.06145825428958701 0.14530906104554517 -0.026308801338409658 -0.02539524151382287 -0.9993312407208085 1.6068186035084193
0.41771693389250886 0.061620360643399506 0.1472927509773382 -0.01795934650788569 -0.01717518474646762 -0.9996911897690879 1.6181060303377819
0.43569947244111285 0.05648394966689752 0.1463186710912639 -0.01408989395330267 0.0008422776642599304 0.9999003777660658 3.81490329044561
0.4434512746987815 0.04290519342812421 0.1372407759076174 -0.022833540269297667 -0.0006038092164542645 0.9997390983917757 3.380622222714605
0.4442284548578057 0.03881754125320156 0.13095569061914278 -0.023336662128883863 -0.000993760629451193 0.9997271691018973 3.274968192866589
0.4445911589685153 0.03494983620826857 0.1321958432426138 -0.0236119219389872 -0.001052420353356777 0.9997206457574771 3.2447950116350657
0.4449165078287906 0.030545778075961053 0.1334625573393642 -0.023938121122610505 -0.0009413500161446955 0.9997129989238244 3.2247920935763092
0.4452092804260851 0.025955358538997397 0.13215051421729962 -0.02146461775916371 -0.0007057313065969732 0.99976935946636 3.2082879316099286
0.44534751223926355 0.021546184505244058 0.12996391029482807 -0.013712383948990185 -0.0004467118848049293 0.999905881058276 3.2072244160244736
0.4455165442001496 0.017543346880693506 0.13218394967252475 -0.01963250251156922 -0.0005654345536593693 0.9998071039600084 3.2001656310940065
0.44586928454634045 0.012174983193766677 0.13189040612521719 -0.023614831443310436 -0.0003213633574676165 0.9997210793323787 3.171785486904463
0.44583227683691196 0.0032497558229554846 0.1281454992258113 -0.01938655479855556 9.941719375811281e-05 0.9998120581435614 3.1294746498682056
0.4453345702699062 -0.0043294552124955405 0.12635055218145727 -0.009024709266675065 0.0001282987898488579 0.9999592682514986 3.1002082739409684
0.4449678263733336 -0.01015128290539396 0.12704947961404545 -0.009086514794676336 0.0003205518812579893 0.9999586653934138 3.0682145574142203
0.44464189384617014 -0.015413450688681331 0.12619753079270138 -0.006766813846081305 0.00020959314845955294 0.9999770828879453 3.081103816521404
0.4437995058829024 -0.019507060095560868 0.12743782463614622 0.007672543371346236 -0.0002568433983736728 0.9999705326206786 3.076596974626175
0.44331246540546027 -0.023984162841030946 0.1261090379018591 0.015226241575993223 -0.000688216225351769 0.9998838372160522 3.055822624724974
0.4425448904498929 -0.03319356844390473 0.12472014052124729 0.0036185257878918026 -0.00014235458884279093 0.9999934429816494 3.019499060045242
0.4433246180421867 -0.030144509708354247 0.12750757125383103 -0.015484413776066387 0.0008934153093099329 0.9998797101347224 3.026117894237283
0.4432569885610781 -0.02763350688234592 0.13052168138025338 -0.00450919412087314 0.00025670280941484736 0.9999898005840099 3.0338120613270845
0.4423361079065054 -0.036416883090327694 0.12924380589936918 -0.012493670323152184 0.0009851840368528722 0.9999214657233186 2.996336891862423
0.44157960561385534 -0.041884635766949715 0.12951076135216938 -0.017912253213810958 0.0015597370369360567 0.999838346136604 2.9739644730575945
0.4405810258537299 -0.04719049307557325 0.12962474663579746 -0.018747836809119532 0.0018803772324378193 0.9998224756407721 2.9445347073894412
0.4408403755793633 -0.04545440928667479 0.13282204516193358 -0.020563378316324647 0.002041291100838965 0.9997864675033672 2.9443955355009828
0.44169165997266085 -0.04055092111050589 0.1351077582125103 -0.0211931827718877 0.0019138684103310788 0.999773567419996 2.961010952367977
0.4426394284163426 -0.03463318945772949 0.1319389598298459 -0.016188085352476407 0.0013199525822757178 0.9998680931091868 2.9808012672779958
0.44241605220531105 -0.03576224005632467 0.13666660053614088 -0.02052487153087797 0.0016477229862433599 0.9997879848535897 2.981897715374333
0.44355581187254955 -0.027914114271653735 0.1371745834135056 -0.02188243229727563 0.0014241431294484206 0.9997595365752215 3.0103602040246287
0.44422268831957273 -0.02275665847183897 0.13300180075441984 -0.019413788242505343 0.0010398309624646258 0.9998109939271745 3.034952517472655
0.4443878393552445 -0.01816882966846872 0.13403282147992918 -0.012689649057660608 0.0005899371434878626 0.9999193091349722 3.052021965119986
0.4452699320625821 -0.013485763996373494 0.13526664115368903 -0.029868412784166586 0.0010647036879048786 0.9995532723791221 3.0667842150074556
0.44542462053196097 -0.004521553867067178 0.13238004555082866 -0.019302516234491505 0.00035643006694096446 0.9998136255445934 3.1109358600201173
0.445602201376657 0.0010222580679670255 0.13225241128237694 -0.018682116220176077 0.00034024100754499834 0.9998254161450351 3.107117294660196
0.4456423615356023 0.005954044211389636 0.131870292572147 -0.016632267760874855 8.215112674305029e-05 0.9998616708926905 3.1330942519844127
0.44570377529640376 0.004353901550445047 0.13619861483857196 -0.024560101141047216 5.273795993968272e-06 0.9996983552072738 3.1404488764398364
0.4456877447659141 0.01085773657286992 0.13660245716472405 -0.024880802868886977 -8.006511214942874e-05 0.9996904216997267 3.1473003920641407
0.44558802112011814 0.016096454987660675 0.13701494860841998 -0.02533209906662961 -0.00033822084252898253 0.9996790336720783 3.167433486223267
0.44539930238916414 0.0212036076623296 0.13520484552326836 -0.022855615703412473 -0.00041281163961782156 0.9997386910675049 3.1775161627062567
0.44506008457686697 0.025571513262065297 0.13745253877842814 -0.02421113226857376 -0.0007241591092151726 0.9997066052937024 3.2006106566719907
0.4445944444446594 0.03192898907118586 0.1381219509109967 -0.025471663708736107 -0.0010052936730246913 0.9996750390664659 3.219425971046298
0.44463642867807746 0.02969796309943915 0.14132322920983986 -0.025914580663417865 -0.0010550389915961152 0.9996636041197886 3.2227953403452
0.4448588446964995 0.025345981522133555 0.14178679987414575 -0.02363750577396451 -0.0008151493238063714 0.9997202627997323 3.210267803731297
0.4451643427965138 0.020767377858523298 0.14060214854698422 -0.023088095678684112 -0.0006082796012426545 0.9997332493389718 3.194368324502655
0.4453700019904216 0.012397718804860267 0.14193713753725967 -0.02332595953820334 -0.00027420527350756563 0.9997278751855877 3.1657346460142226
0.4454629234264062 0.0075337637489653305 0.1403820901846057 -0.022267117473916465 -6.649488266195469e-05 0.9997520547905032 3.147772721999296
0.4453466106507283 -0.0017999268176619979 0.13667995956538265 -0.01714664467322004 0.00012404635491110072 0.9998529777867106 3.12508146494511
0.4447963188855516 -0.007804675448709837 0.13625405858848397 -0.007400583182666317 0.00010987901736166896 0.999972609272453 3.0989248172872044
0.44471353499164173 -0.013304782594037973 0.1387802133572591 -0.01728533811725484 0.0005338964224084134 0.9998504548385135 3.082637091006984
0.44427741444550123 -0.020246452192653135 0.13816324188453225 -0.019874392432622595 0.000882204226065736 0.9998020955374807 3.055887069864718
0.444264209231952 -0.018690378744054065 0.1418484344070991 -0.019683182794568096 0.0008592172350753997 0.9998058981926535 3.0573946817541615
0.44459732637747745 -0.013957152878657323 0.14341907961844358 -0.02114818272873095 0.0007330928385057687 0.9997760834017596 3.0723048863359326
0.444925409182163 -0.008849965856376363 0.14169289559498577 -0.02068891311636241 0.0005573293502709091 0.9997858061895353 3.0876261396696734
0.4453805488859917 1.1939681536778948e-05 0.14054638580832812 -0.024026724178442534 0.0003468771199836731 0.9997112564143293 3.1111454389237077
0.4452032930215573 0.0007930296871767743 0.1441984103433403 -0.02236050250442847 0.00023466330521006702 0.9997499451667315 3.1202741026366327
0.4452347105696322 0.006889891399753375 0.14510526048997222 -0.022201464812890315 6.29061853416942e-05 0.9997535151240898 3.1352822505650986
0.4451596469586707 0.011677401166945522 0.14633629950683785 -0.022561215114533267 -0.00011167512395951613 0.999745457154581 3.150737393667265
0.44511588671986096 0.016700913398601785 0.1451032112127019 -0.022995198036722803 -0.00032553471512333104 0.9997355224730194 3.169185541575528
0.4446083372230317 0.025133735844221496 0.14572994622440036 -0.02082230728603742 -0.0005919345445898471 0.9997830170255848 3.1987415083568482
0.44412726192935914 0.033270324620051805 0.14328361054932576 -0.022571562664169077 -0.0009080913288084314 0.9997448174054397 3.221046308894421
0.44377106193024485 0.03900405211856964 0.14118626667112377 -0.02545365408619928 -0.0007458311532991149 0.9996757250376497 3.200554355010109
0.4435708746729399 0.03811121837902401 0.1458912796427366 -0.0228887676651703 -0.0009943660193023518 0.9997375233284932 3.2296323788653623
0.44408801947155235 0.03193161474413514 0.14707444368174916 -0.0226128614723264 -0.0009550314165997679 0.9997438403966423 3.2272532983395203
0.4442903106518892 0.02753651211213642 0.14971740203500783 -0.022137310369808726 -0.0008119799641919932 0.9997546099809336 3.2153704296113124
0.44458276613357206 0.02241207395920775 0.15052087196811528 -0.021199845137153752 -0.0006126223807421577 0.9997750703333121 3.1996738052833713
0.44487295311316066 0.017042061178806193 0.14944186239748136 -0.021705095720368342 -0.0004062477941622451 0.9997643341220468 3.179719268298654
0.445040974606355 0.009328425024962634 0.14942190066828834 -0.0220873481628293 -0.00015199130584620787 0.9997560332149924 3.1564042197622264
0.4449261493708325 0.011424154117089354 0.15274137437466034 -0.02423462578565271 -0.00017215439477996994 0.9997062835032566 3.1559051113113332
0.4449593805961618 0.003568448583956636 0.15209542035166615 -0.024283711744496686 8.220502819168875e-05 0.9997051038112407 3.135289511470896
0.4449426352827964 -0.0036734815002547987 0.14686129575177545 -0.021516026719606122 0.0002588961486133831 0.9997684699804178 3.1170914016231364
0.44479489129924943 -0.008678099016588307 0.14683912638244953 -0.022530894664774336 0.0005731084195204145 0.9997459829038297 3.091351767406948
0.4444931286739995 -0.013305407786072821 0.1482312567830724 -0.023573579142511198 0.000732731928315834 0.9997218360475743 3.0801656105104427
0.44406119636936686 -0.019427263582972084 0.14727862699428837 -0.02342005296025137 0.0009435744155055917 0.9997252676544 3.061552842148122
0.44343253693131707 -0.026858308487156455 0.1422156871397066 -0.019782579281480216 0.0010865015925075228 0.9998037152717835 3.030256801329309
0.442869208824921 -0.03150347787279886 0.1402163353300265 -0.01895481044403424 0.0012666061418919723 0.9998195391518973 3.007552305299733
