0.02256528 -0.03272915 -0.06334151 0.989718 -0.140226 0.0281064
0.02317318 -0.02770055 -0.06172052 0.991528 -0.125818 0.0320725
0.02365868 -0.02286223 -0.05952626 0.994519 -0.102419 0.0201363
0.02309499 -0.02767854 -0.05720175 0.98861 -0.148538 -0.00618543
0.02205542 -0.03530083 -0.05995963 0.98666 -0.156469 0.0448168
0.02182342 -0.03576378 -0.05529062 0.986046 -0.162681 0.0352895
0.02088364 -0.04135482 -0.05668595 0.98277 -0.180998 0.0372398
0.01964838 -0.04709381 -0.0634342 0.684868 -0.725723 0.0207443
0.02010182 -0.04585263 -0.05934656 0.973423 -0.219797 0.0566324
0.01894162 -0.04721336 -0.05464979 0.574584 -0.816725 0.0361652
0.01884829 -0.04692912 -0.04827161 0.679209 -0.732462 0.0270502
0.01587259 -0.04777661 -0.05142169 -0.0254017 -0.999391 0.0156358
0.01477936 -0.04785423 -0.05570783 0.0609872 -0.998123 0.00257496
0.009542941 -0.04804792 -0.05613714 0.0150057 -0.999819 0.0102425
0.004382168 -0.04809081 -0.05743838 -0.0110589 -0.999931 0.00168301
-9.582746e-05 -0.04795936 -0.05745823 -0.0380181 -0.999241 0.00833172
-0.004538917 -0.04771411 -0.0563016 -0.0731621 -0.997042 0.0234642
-0.01088161 -0.04721148 -0.05797713 -0.0851449 -0.99632 0.004625
-0.01414863 -0.04687594 -0.05521023 -0.0916333 -0.995736 0.00823617
-0.008369215 -0.04739035 -0.05393902 -0.0734344 -0.997252 0.00942344
0.000848946 -0.0479594 -0.05338046 -0.03162 -0.999451 0.00949664
0.006291018 -0.04803222 -0.05307116 0.000125783 -0.999922 0.0123864
0.01179919 -0.04793333 -0.0525915 0.04659 -0.998752 0.0136499
0.009816093 -0.04794115 -0.04839111 0.0241393 -0.999683 0.00626922
0.002384665 -0.04794291 -0.04837698 -0.0277992 -0.999463 0.0169952
-0.002800995 -0.04773923 -0.04944441 -0.0586126 -0.998225 0.0102575
-0.008223669 -0.0473566 -0.04960349 -0.083315 -0.996461 0.00999447
-0.01340859 -0.04685766 -0.04926806 -0.134767 -0.990362 0.0318838
-0.01623791 -0.04653444 -0.04548626 -0.0872714 -0.995908 0.0127615
-0.008343066 -0.04725849 -0.04460229 -0.0874182 -0.995938 0.0209898
-0.002878441 -0.0476735 -0.04522008 -0.0752183 -0.996872 0.0232353
0.001575922 -0.04784719 -0.04424372 -0.0262946 -0.999354 0.0243361
0.005853895 -0.04789765 -0.04374686 -0.0030249 -0.999788 0.019078
0.01425544 -0.04771507 -0.0461891 0.011453 -0.999451 0.0301917
0.01151564 -0.04776786 -0.04249141 0.0560351 -0.998143 0.0145415
0.01582506 -0.04759108 -0.04076808 0.0347451 -0.998942 0.0242131
0.01201454 -0.04767073 -0.03824178 0.0782469 -0.99655 0.0254306
0.007825346 -0.04781446 -0.03972506 0.0166243 -0.999593 0.0227659
0.0005460777 -0.04771248 -0.03963503 -0.0395117 -0.999041 0.0186904
-0.004135395 -0.04746042 -0.03974096 -0.067312 -0.997451 0.0235799
-0.01283342 -0.04677983 -0.0409789 -0.0723085 -0.997043 0.0250216
-0.009348553 -0.04703816 -0.03832918 -0.0881635 -0.995929 0.0184016
-0.01798747 -0.04598856 -0.03896286 -0.590378 -0.804471 -0.0177679
-0.01828511 -0.04464244 -0.04919821 -0.991826 -0.122828 -0.0341719
-0.01844768 -0.04175325 -0.05301388 -0.991063 -0.127209 -0.0382846
-0.01890284 -0.03871472 -0.04975364 -0.995089 -0.0959871 -0.0229312
-0.01971883 -0.03003903 -0.04829235 -0.996882 -0.0769726 -0.0173256
-0.01986069 -0.02660436 -0.05130452 -0.997523 -0.0622112 -0.0326959
-0.02007652 -0.02495049 -0.0470566 -0.997865 -0.0541886 -0.0363034
-0.02034391 -0.0183384 -0.04763394 -0.998993 -0.0278168 -0.0344742
-0.02042484 -0.01978688 -0.0434691 -0.999259 -0.0293044 -0.0245389
-0.02056619 -0.0133622 -0.0431477 -0.99993 -0.00410397 -0.0101945
-0.02054445 -0.007931078 -0.04358651 -0.999552 0.0147856 -0.0250187
-0.02039399 -0.003556992 -0.04433671 -0.99915 0.0308939 -0.0271149
-0.02016533 0.001237285 -0.04540538 -0.998659 0.0474611 -0.0196815
-0.01990069 0.006297431 -0.04443961 -0.997032 0.070001 -0.031733
-0.01961541 0.01047292 -0.04401125 -0.996324 0.0833307 -0.0197116
-0.01917549 0.0158566 -0.04186936 -0.994578 0.0972099 -0.0362213
-0.01975174 0.01024547 -0.03865932 -0.996689 0.0781923 -0.0220821
-0.02029536 0.001626724 -0.0389041 -0.998294 0.0442324 -0.0379292
-0.02051647 -0.00450109 -0.04021138 -0.999087 0.0406714 -0.0128652
-0.02065795 -0.008500268 -0.03866731 -0.999453 0.0110465 -0.0306592
-0.02064972 -0.01622341 -0.03834978 -0.999186 -0.0210645 -0.0341912
-0.02039136 -0.02362428 -0.03903185 -0.998579 -0.0453707 -0.0268088
-0.02007658 -0.02735382 -0.04274757 -0.99774 -0.0646849 -0.0179769
-0.01966975 -0.03281885 -0.04288127 -0.996094 -0.0841221 -0.0266167
-0.01909147 -0.03821088 -0.04534772 -0.99298 -0.11003 -0.0413515
-0.01873274 -0.0429078 -0.04254191 -0.994554 -0.0986532 -0.0335659
-0.01945374 -0.03636381 -0.04010208 -0.996157 -0.0821161 -0.0302603
-0.01917793 -0.04046989 -0.03831388 -0.993446 -0.10966 -0.0314965
-0.01989101 -0.03224774 -0.03803165 -0.995554 -0.0862353 -0.037511
-0.02020086 -0.02940105 -0.03495548 -0.997086 -0.0643228 -0.0400233
-0.02046274 -0.02508359 -0.03477726 -0.998325 -0.0489779 -0.0302725
-0.02067772 -0.01964105 -0.03508858 -0.999063 -0.0321568 -0.0283664
-0.02085607 -0.01605008 -0.03130344 -0.999402 -0.0126103 -0.0318492
-0.02077625 -0.009868254 -0.0344804 -0.999867 0.00948834 -0.00753658
-0.02064057 -0.004618368 -0.03518415 -0.99906 0.0368912 -0.0223672
-0.02047808 -0.0003529768 -0.03382122 -0.999042 0.0419946 -0.0111582
-0.02004744 0.006721631 -0.03591633 -0.997391 0.0675629 -0.0253652
-0.01965564 0.01230267 -0.03480257 -0.996521 0.082795 -0.00867188
-0.01905923 0.01852617 -0.03535564 -0.993802 0.108123 -0.0253062
-0.01852117 0.02231288 -0.03869086 -0.991376 0.127702 -0.0287842
-0.0183805 0.02418228 -0.03488372 -0.991237 0.129581 -0.0255613
-0.01783964 0.02819436 -0.03384858 -0.988124 0.148563 -0.0384901
-0.01707109 0.03341195 -0.03265061 -0.985869 0.1605 -0.0478937
-0.01645059 0.03735276 -0.03118847 -0.988722 0.143983 -0.0409814
-0.01403638 0.04219095 -0.03938934 -0.390533 0.919526 -0.0432461
-0.009613791 0.04246643 -0.04662465 0.028709 0.999519 0.00916794
-0.007705767 0.04244372 -0.05231567 0.00678531 0.999563 0.0283718
-0.003755682 0.04242041 -0.05459573 0.0123576 0.99936 0.0331426
0.0005886595 0.04235289 -0.05571023 0.0190224 0.999008 0.0402302
0.00497339 0.04213677 -0.05434446 0.0345213 0.997328 0.0642652
0.01013955 0.04199182 -0.05517863 0.0438457 0.997678 0.0519429
0.01519212 0.04167686 -0.05269077 0.0298126 0.999168 0.0275604
0.01938863 0.04152978 -0.05450504 0.0430218 0.998958 0.0151675
0.01879506 0.04150879 -0.05029824 0.0217235 0.999692 0.0114094
0.008752516 0.0418446 -0.05121629 0.0499081 0.997336 0.0527943
0.0141044 0.04157302 -0.04823383 0.0232935 0.999652 0.0119677
0.005145695 0.04187173 -0.04884269 0.0415552 0.998455 0.0364999
0.0008095755 0.04204281 -0.04846361 0.0438162 0.998728 0.0237594
-0.003517234 0.04225048 -0.04951578 0.0336978 0.99898 0.0298494
-0.001469421 0.04213237 -0.04463255 0.0422822 0.999064 -0.00899582
0.003924992 0.04189017 -0.04437658 0.0376865 0.99927 -0.00491893
0.01267513 0.04159675 -0.04426753 0.0127921 0.999825 -0.0133215
0.01708437 0.0415228 -0.04362731 0.0205132 0.999635 -0.0173266
0.02191066 0.04133353 -0.04310191 0.343433 0.938227 -0.0151004
0.02012479 0.04164625 -0.03870507 0.0385778 0.998651 -0.0342982
0.01210695 0.04181188 -0.03933542 0.028763 0.998139 -0.0537154
0.007193979 0.04186387 -0.04126524 0.047738 0.997381 -0.0538425
0.001780131 0.04214782 -0.0400404 0.0269817 0.998285 -0.0518502
-0.006600664 0.04236842 -0.04339951 0.0412146 0.998813 -0.0256141
-0.003130718 0.04233848 -0.03990966 0.0345038 0.997831 -0.0555927
-0.007426946 0.0425979 -0.03831986 0.0345294 0.998307 -0.0467428
-0.003171595 0.04261576 -0.03552698 0.022868 0.997605 -0.064995
0.005277501 0.04216201 -0.03755867 0.0368011 0.996656 -0.072845
0.007725968 0.04234903 -0.03378241 0.0408662 0.9975 -0.0572622
0.01621599 0.04187334 -0.03601753 0.037682 0.997959 -0.0514704
0.01197156 0.04219007 -0.03346027 0.033948 0.998081 -0.0517457
0.01725557 0.04202676 -0.03179436 0.0511971 0.99822 -0.0297961
0.02233164 0.04070334 -0.034222 0.938922 0.336713 0.0469875
0.02321104 0.03753955 -0.04485852 0.994792 0.0876927 0.0515492
0.02362849 0.03630316 -0.05068956 0.994278 0.0958765 0.0471017
0.02389424 0.03260924 -0.04868806 0.994733 0.090767 0.0475151
0.0241785 0.02843782 -0.04739442 0.996028 0.0748021 0.0482415
0.02453979 0.02415826 -0.04884907 0.99728 0.0603375 0.041186
0.02483809 0.01977588 -0.05081031 0.997597 0.0649005 0.0210959
0.02489462 0.01594319 -0.04839408 0.997431 0.0560037 0.0432028
0.02500614 0.01101929 -0.04911684 0.998515 0.0177203 0.0509486
0.02509594 0.002666517 -0.05303114 0.998873 -0.0311229 0.035227
0.02490042 -0.004183213 -0.05419479 0.998536 -0.0527584 0.0101725
0.02465288 -0.00918983 -0.0532273 0.996225 -0.0842612 0.0181769
0.02426745 -0.01468377 -0.05415761 0.998324 -0.0552766 0.0116703
0.02390247 -0.0186675 -0.05213187 0.997449 -0.0663278 -0.0252321
0.02353847 -0.02276115 -0.05337045 0.994776 -0.0947343 -0.0372694
0.02247805 -0.03159349 -0.05524397 0.990644 -0.136093 0.00184104
0.02294218 -0.02747498 -0.05292154 0.992484 -0.113005 0.04415
0.02314256 -0.02520726 -0.04941076 0.99446 -0.104855 0.00157524
0.02191377 -0.03427942 -0.05134312 0.986463 -0.160846 0.0318397
0.02112286 -0.03892073 -0.05122932 0.983497 -0.176234 0.0405949
0.02020077 -0.04362323 -0.05115245 0.977396 -0.207691 0.0383713
0.02053912 -0.04119553 -0.0477288 0.979641 -0.19614 0.0427853
0.0213543 -0.03634451 -0.04553354 0.984096 -0.172339 0.0430479
0.02238875 -0.03078279 -0.04901718 0.988052 -0.15148 0.0282452
0.02191281 -0.03258143 -0.04372925 0.986399 -0.15815 0.0446687
0.02305006 -0.02446633 -0.04366908 0.991862 -0.119032 0.0450656
0.02366162 -0.02006914 -0.04820116 0.994744 -0.0953251 0.0368152
0.02399932 -0.01592482 -0.04639509 0.996328 -0.0823478 0.0199977
0.02432203 -0.01149213 -0.04583056 0.994543 -0.0680451 0.0743193
0.02483399 -0.003043528 -0.04873916 0.999329 -0.0154921 0.0315818
0.02497428 0.002248801 -0.04850275 0.998657 -0.0359203 0.0365841
0.02502979 0.006622954 -0.04883933 0.99949 0.00107417 0.0318223
0.02479962 0.004202959 -0.04439685 0.99826 0.00221714 0.0558567
0.02482767 0.01132652 -0.0443915 0.998693 0.00847485 0.0503611
0.0246979 0.01607227 -0.04398726 0.99806 0.034845 0.0511924
0.02457326 0.02093078 -0.0459086 0.998189 0.0407272 0.0436343
0.02423585 0.02474109 -0.04333113 0.99646 0.0678106 0.0494548
0.02373262 0.03088629 -0.04285526 0.994927 0.0860056 0.0521411
0.0238226 0.02777231 -0.03943782 0.995201 0.0826504 0.0523553
0.02411513 0.02348634 -0.03912594 0.996967 0.0630772 0.045375
0.02440716 0.01923956 -0.04044643 0.997914 0.0454621 0.0457308
0.02457288 0.01112831 -0.03889707 0.998823 0.0122565 0.0469053
0.02468862 0.006959235 -0.04067403 0.999041 -0.00214047 0.0436962
0.02467037 -0.002338385 -0.04438225 0.999189 -0.0262821 0.0300765
0.0244554 -0.007513744 -0.04408535 0.998536 -0.0521169 0.00785152
0.02406047 -0.01258274 -0.04166708 0.996896 -0.065933 0.0429061
0.02358674 -0.0191103 -0.04273242 0.994402 -0.096844 0.0422218
0.02363404 -0.01680356 -0.03864556 0.995763 -0.0824715 0.0406376
0.02391981 -0.0120686 -0.03728662 0.997085 -0.0624689 0.0437318
0.02426048 -0.007266404 -0.03931394 0.998002 -0.0479307 0.0411482
0.02461186 0.001466133 -0.04055431 0.998485 -0.0219046 0.0504672
0.02440459 0.001307411 -0.03638382 0.998901 -0.0173753 0.0435173
0.02445253 0.00758189 -0.03569748 0.999012 0.000407257 0.0443221
0.02435827 0.01193889 -0.03446448 0.998825 0.0162608 0.0455486
0.02431226 0.0165853 -0.03595245 0.998288 0.0354303 0.0464621
0.02384694 0.02473496 -0.03507018 0.99674 0.070116 0.0398921
0.02335254 0.03236639 -0.03786461 0.995048 0.0878344 0.0464956
0.02290679 0.03832252 -0.04007594 0.997184 0.0518866 0.0530298
0.02285105 0.0362433 -0.0346126 0.994182 0.0982864 0.0440182
0.02341831 0.02951703 -0.03369759 0.995449 0.0843174 0.0443552
0.0236058 0.02556909 -0.03092677 0.996616 0.0694313 0.0439918
0.02387954 0.02071292 -0.03025591 0.997803 0.0513406 0.0417177
0.02413964 0.01574819 -0.03154315 0.998603 0.0293392 0.0439208
0.02426832 0.008298728 -0.03149185 0.998981 0.0040156 0.0446474
0.02407049 0.01134254 -0.02794232 0.998631 0.0138119 0.0502773
0.02411286 0.002970207 -0.028956 0.998701 -0.014866 0.0486872
0.02420759 -0.003844541 -0.03452047 0.998655 -0.0314891 0.0410559
0.02401484 -0.008101903 -0.03410202 0.997114 -0.0604212 0.045857
0.0236749 -0.01244298 -0.03260634 0.996632 -0.0663064 0.0481408
0.0232895 -0.01833351 -0.03376854 0.995123 -0.0867027 0.0468266
0.02277827 -0.02526629 -0.03908894 0.991518 -0.124646 0.0365567
0.02231283 -0.02915119 -0.04076005 0.989009 -0.143048 0.0372641
0.02125991 -0.03556301 -0.04037364 0.983414 -0.176411 0.0418421
0.02064562 -0.0394599 -0.04282188 0.98117 -0.187171 0.0476451
0.01943205 -0.04568692 -0.04427283 0.967632 -0.247153 0.0445673
0.01992069 -0.04222832 -0.03931625 0.978611 -0.20211 0.0382949
0.02003291 -0.04065114 -0.03436723 0.979568 -0.195957 0.0447497
0.02099113 -0.03591711 -0.03524887 0.98334 -0.177656 0.0382724
0.02170788 -0.03224996 -0.03749658 0.986136 -0.161203 0.0392934
0.02149231 -0.03242435 -0.03280805 0.987251 -0.155089 0.0356156
0.02210868 -0.02827097 -0.03218088 0.989588 -0.138979 0.0373793
0.02305024 -0.02198973 -0.03639768 0.993461 -0.106222 0.0415725
0.02276073 -0.02309438 -0.03232292 0.993114 -0.109755 0.0407723
0.02280459 -0.02109052 -0.02862008 0.993927 -0.0988128 0.0483465
0.0233041 -0.01589285 -0.02975141 0.996161 -0.0737539 0.0470833
0.02367966 -0.009577936 -0.02864271 0.997258 -0.0572338 0.0468068
0.02393918 -0.00559422 -0.02994825 0.99808 -0.0412113 0.0460399
0.02411326 -0.001291793 -0.03075616 0.99856 -0.0251541 0.0472101
0.02391476 -0.001511985 -0.02659971 0.998468 -0.0250601 0.0492852
0.02369873 -0.006405956 -0.02565722 0.997436 -0.0448547 0.0552588
0.02389393 0.002532693 -0.02459879 0.998578 -0.0151848 0.050851
0.02395129 0.007087487 -0.02504798 0.998873 0.000826094 0.0473795
0.02390512 0.01699378 -0.02718014 0.998251 0.0325978 0.0492129
0.0238281 0.01368962 -0.02405556 0.998419 0.0216477 0.0518545
0.02357538 0.02033974 -0.02319928 0.997737 0.0458876 0.0491006
0.0234054 0.02547929 -0.02561387 0.996276 0.0767232 0.0389916
0.02306123 0.03026078 -0.02689441 0.995542 0.083112 0.0445584
0.02275363 0.03467345 -0.02899552 0.99452 0.0948844 0.0438868
0.02215137 0.03979224 -0.02625046 0.988387 0.14589 0.0420805
0.02219804 0.0373725 -0.02237917 0.99438 0.0962262 0.0440288
0.02273612 0.03202628 -0.0229017 0.995094 0.0872356 0.0465577
0.02307239 0.02693057 -0.02141136 0.995581 0.0782809 0.0517956
0.02267469 0.0305492 -0.01897315 0.995397 0.080734 0.0515737
0.02228164 0.03494048 -0.01875038 0.99454 0.0935528 0.0462062
0.02089259 0.04193824 -0.02068168 0.494744 0.868315 0.00476545
0.01715191 0.04223537 -0.02382005 0.0104709 0.999146 -0.0384885
0.01440202 0.04229169 -0.02812238 0.0519507 0.997843 -0.0394811
0.009331722 0.04250861 -0.02971814 0.053934 0.998239 -0.0242335
0.001936716 0.04261442 -0.03273072 0.036539 0.99708 -0.0669164
-0.003836483 0.04289642 -0.03094245 0.00734542 0.998747 -0.0489059
-0.009236492 0.0428411 -0.03426257 0.027296 0.998917 -0.0376681
-0.01360865 0.04270764 -0.03290892 -0.379309 0.923928 -0.0435171
-0.01338635 0.04311384 -0.02532919 -0.260714 0.964819 -0.0324739
-0.01021061 0.04307785 -0.02821223 -0.00863849 0.998583 -0.050437
-0.006234234 0.04309792 -0.02597004 0.00466658 0.999255 -0.0382254
-0.00187851 0.0430176 -0.02698604 0.0125502 0.998378 -0.0551098
0.003879755 0.04279748 -0.02826935 0.0558822 0.997397 -0.0450311
0.008671486 0.04271806 -0.02541781 0.0524177 0.998426 -0.0192675
0.004056545 0.04305378 -0.02355754 0.0385947 0.996378 -0.0737045
-0.001693247 0.04326805 -0.0226213 0.0790246 0.99631 -0.0309501
0.01275624 0.04262833 -0.02338895 0.0576225 0.994388 -0.0873337
0.01488355 0.04256881 -0.01943641 0.0475034 0.997935 -0.0399846
0.007485494 0.04299818 -0.01911511 -0.0508568 0.99425 0.0805283
0.001958559 0.04313035 -0.01893196 0.0211327 0.999248 0.00609423
-0.005866894 0.04312139 -0.02093627 -0.0226999 0.994792 0.0984096
-0.009407108 0.04329845 -0.02312791 0.0291755 0.99904 -0.0211831
-0.01164602 0.04338237 -0.01680318 0.027752 0.99951 -0.0140771
-0.003815442 0.04342676 -0.01591485 0.0153984 0.999817 -0.00228831
-0.007806873 0.04341818 -0.01451382 0.00263723 0.999928 -0.0111776
0.0002836467 0.04334304 -0.01412776 0.0308329 0.999521 -0.00217515
0.007962703 0.04304009 -0.01496472 0.0496758 0.998747 -0.00275936
0.01156526 0.04283883 -0.01275612 0.0639059 0.997945 0.00387158
0.01584416 0.04250116 -0.01482396 0.14771 0.988922 0.00673033
0.0209405 0.0415816 -0.01343112 0.742953 0.667207 0.0408964
0.0212094 0.04103781 -0.009225916 0.940096 0.332548 0.0154803
0.02194243 0.03672606 -0.01486345 0.99528 0.0867644 0.0434202
0.02241883 0.03011057 -0.01342851 0.995605 0.0765322 0.0539586
0.02297997 0.02519749 -0.01709611 0.996545 0.0631882 0.0538348
0.0233092 0.02121637 -0.01913238 0.997211 0.0490291 0.0562515
0.02354078 0.0165155 -0.01987074 0.997398 0.0186623 0.069094
0.02366103 0.0119892 -0.0201626 0.998864 0.017516 0.0437157
0.02374533 0.005282457 -0.02124377 0.999159 0.000117684 0.0406907
0.02364661 0.000308014 -0.02074547 0.998799 -0.00338797 0.0486728
0.02348771 -0.004001013 -0.01998243 0.997866 -0.0266207 0.0590619
0.02337454 -0.009033397 -0.02203708 0.996285 -0.0553767 0.0658807
0.0231587 -0.01339049 -0.0231356 0.996653 -0.0698495 0.0424476
0.02294916 -0.01793872 -0.02586247 0.995051 -0.0856023 0.0503928
0.02239446 -0.02236938 -0.02318438 0.993025 -0.108308 0.0464859
0.02170297 -0.02946054 -0.02737547 0.988626 -0.141951 0.0495917
0.02056029 -0.03741485 -0.03111597 0.981774 -0.186312 0.0373841
0.01938264 -0.04306869 -0.03073564 0.977797 -0.205304 0.0401652
0.02007144 -0.03897157 -0.02692005 0.980181 -0.192212 0.0477149
0.02106302 -0.03374346 -0.02755924 0.985173 -0.163994 0.0502385
0.02075727 -0.03420604 -0.02327834 0.984679 -0.167741 0.0476214
0.0190658 -0.04367422 -0.02641276 0.975194 -0.215795 0.0491453
0.01845282 -0.04553231 -0.02216594 0.944464 -0.323888 0.0438493
0.01627471 -0.0474837 -0.03638867 0.113154 -0.993092 0.0267958
0.01594976 -0.04740971 -0.03061552 0.0724173 -0.996995 0.0205876
0.008861239 -0.04767684 -0.03414613 0.0157173 -0.999529 0.0259191
0.004166308 -0.04772695 -0.03594596 -0.0114295 -0.999452 0.0310237
-6.774754e-05 -0.04752186 -0.03284292 -0.054461 -0.998336 0.0160185
-0.005674932 -0.04725181 -0.0350502 -0.0643447 -0.997597 0.0247373
-0.01016073 -0.04687266 -0.03340615 -0.0852722 -0.996207 0.01733
-0.01508913 -0.04646603 -0.03284509 -0.0667362 -0.99752 0.00888803
-0.006375926 -0.04708476 -0.03016757 -0.0709445 -0.997148 0.0257145
-0.01241868 -0.04660598 -0.02857383 -0.0742223 -0.997121 0.0147125
-0.002745655 -0.04726097 -0.02808059 -0.0549842 -0.998247 0.02156
0.001654131 -0.04743785 -0.02859804 -0.0218396 -0.999648 0.0143456
0.005723775 -0.04761723 -0.03106234 0.006141 -0.999592 0.0274319
0.01104522 -0.04751752 -0.02987326 0.0377255 -0.998887 0.0276613
0.007780346 -0.04748939 -0.02714648 0.00459376 -0.999772 0.020556
0.01450129 -0.047357 -0.02659938 -0.0180599 -0.99953 0.0235889
0.01116615 -0.04733818 -0.02218247 0.0224394 -0.999603 -0.00585601
0.005018684 -0.0473946 -0.02311801 -0.00403552 -0.999812 0.0182227
0.0009058245 -0.04728021 -0.02024848 -0.0298141 -0.999414 0.0167936
-0.003316774 -0.04711607 -0.02052317 -0.047028 -0.998693 0.0196401
-0.008361712 -0.04682664 -0.02297951 -0.0759327 -0.996895 0.0142151
-0.01327118 -0.04643984 -0.02190891 -0.0861739 -0.996228 0.00414077
-0.01810399 -0.04602807 -0.02400123 -0.319758 -0.946519 0.0255193
-0.0189162 -0.04523054 -0.02810914 -0.877037 -0.475156 -0.033991
-0.01916 -0.04271666 -0.0321932 -0.995578 -0.0829948 -0.0437458
-0.01955137 -0.03832714 -0.03315973 -0.9981 -0.0392925 -0.0439527
-0.01992907 -0.03346876 -0.03355022 -0.996033 -0.0883228 -0.0104525
-0.02046328 -0.02759532 -0.03117202 -0.997862 -0.0545101 -0.0347992
-0.02070649 -0.02375641 -0.02873747 -0.998271 -0.0510413 -0.0290786
-0.02085845 -0.01954108 -0.02877916 -0.998945 -0.0230913 -0.0391801
-0.02086829 -0.01089525 -0.03015634 -0.99993 0.0113922 0.000800634
-0.02075694 -0.005653597 -0.02980353 -0.999407 0.0301383 -0.0160075
-0.02029923 0.004003747 -0.03193079 -0.998024 0.0577998 -0.024373
-0.01983144 0.01124851 -0.03075826 -0.996766 0.0781844 -0.0183786
-0.01938175 0.01630734 -0.03158605 -0.995003 0.0955202 -0.0289727
-0.01891735 0.0213524 -0.02877625 -0.993452 0.111258 -0.0258875
-0.0183325 0.02634102 -0.02777616 -0.990724 0.134567 -0.0186037
-0.01768615 0.03053705 -0.0296067 -0.986744 0.154636 -0.0485541
-0.01723883 0.03451077 -0.02440026 -0.988996 0.142284 -0.0403822
-0.01628712 0.03990495 -0.0253819 -0.981469 0.185369 -0.0485264
-0.01685581 0.03765205 -0.02099909 -0.988604 0.143035 -0.0466683
-0.01801823 0.03013722 -0.02180385 -0.988753 0.14443 -0.0387819
-0.01885479 0.02340154 -0.02318429 -0.993109 0.114323 -0.0253663
-0.0195499 0.01623027 -0.02455515 -0.995794 0.0888467 -0.0221415
-0.01989035 0.01188595 -0.02507817 -0.997061 0.0740064 -0.0197836
-0.02025039 0.006249034 -0.02662868 -0.998129 0.0585464 -0.0171129
-0.02052704 0.0009398074 -0.02742491 -0.998684 0.0492646 -0.0139378
-0.02044536 0.003990366 -0.02312742 -0.998337 0.0548546 -0.0175957
-0.02067153 -0.0001774648 -0.0212859 -0.998783 0.0475076 -0.013156
-0.02089978 -0.008779098 -0.02656501 -0.999663 0.0206554 -0.0156844
-0.02083796 -0.004725046 -0.02318704 -0.999263 0.0365622 -0.011656
-0.02103153 -0.01159074 -0.02206933 -0.999611 0.00844923 -0.0265175
-0.02102401 -0.01582461 -0.02357869 -0.999967 -0.00731658 0.0027524
-0.02096809 -0.02000272 -0.02400998 -0.999581 -0.0264489 -0.0110173
-0.02082641 -0.02439768 -0.02377955 -0.998959 -0.0405542 -0.0205849
-0.02059904 -0.02856321 -0.02430088 -0.997895 -0.0580773 -0.0287163
-0.02016744 -0.0331974 -0.02763607 -0.996167 -0.0774982 -0.0404011
-0.01972276 -0.03811078 -0.02874886 -0.995333 -0.0933096 -0.0241606
-0.01954074 -0.04158728 -0.02519144 -0.99428 -0.0982598 -0.0413032
-0.02021887 -0.03493597 -0.0221969 -0.996488 -0.0772657 -0.0322079
-0.02057246 -0.03075283 -0.02050555 -0.997705 -0.0623365 -0.0261221
-0.02017409 -0.03724699 -0.01829639 -0.99598 -0.0843244 -0.0292409
-0.01969421 -0.04320336 -0.0179037 -0.994188 -0.0966842 -0.0472841
-0.0201158 -0.04004629 -0.01433927 -0.995492 -0.0806695 -0.0477733
-0.02065097 -0.03115766 -0.01614277 -0.99775 -0.0611158 -0.0275331
-0.02088045 -0.0256982 -0.01819091 -0.999224 -0.0351466 -0.0177108
-0.02101539 -0.020332 -0.01959981 -0.999481 -0.0236673 -0.0217525
-0.02112369 -0.01298539 -0.01814364 -0.999528 0.00596047 -0.0277756
-0.02096169 -0.007179666 -0.01968408 -0.999188 0.030328 -0.0258885
-0.02055126 0.003413359 -0.01819145 -0.9984 0.0536618 -0.017833
-0.02030356 0.007481464 -0.0192183 -0.997962 0.0621526 -0.0143196
-0.01990593 0.01308925 -0.01979847 -0.996944 0.0746431 -0.0229946
-0.01935242 0.01956914 -0.01994575 -0.994891 0.0971761 -0.0271243
-0.0189234 0.02400014 -0.0185896 -0.993229 0.112829 -0.0276226
-0.01762189 0.03350911 -0.01881174 -0.987662 0.151262 -0.0403791
-0.01818504 0.03042355 -0.0159128 -0.989195 0.142388 -0.0348523
-0.01606393 0.04173397 -0.01950693 -0.883391 0.463887 -0.0375775
-0.01682634 0.03942733 -0.01585757 -0.981935 0.184729 -0.0401746
-0.01762737 0.03547519 -0.01118687 -0.985531 0.164113 -0.040949
-0.01705509 0.0396385 -0.009623648 -0.98331 0.171264 -0.0613006
-0.01834024 0.03075663 -0.01063412 -0.990146 0.133625 -0.0418088
-0.01918881 0.022684 -0.01459941 -0.994068 0.105187 -0.0275337
-0.01978043 0.01596462 -0.01576054 -0.996597 0.0795213 -0.0210986
-0.02014678 0.01102654 -0.01504338 -0.997581 0.0676481 -0.0159078
-0.02045353 0.006655843 -0.01326468 -0.99826 0.057335 -0.0136915
-0.02073763 0.00100132 -0.01436222 -0.998628 0.0469652 -0.0229138
-0.02093682 -0.004034016 -0.01458219 -0.999011 0.0410494 -0.0170536
-0.02115199 -0.01156955 -0.014106 -0.999874 0.0120253 -0.00960518
-0.02112779 -0.01678348 -0.01604178 -0.999924 -0.00551851 0.000423711
-0.02105992 -0.02192508 -0.01529817 -0.999586 -0.0226697 -0.0175276
-0.02089678 -0.02789889 -0.0130692 -0.998783 -0.0428454 -0.0244089
-0.02073027 -0.03185482 -0.01175955 -0.998137 -0.0573018 -0.020607
-0.0204187 -0.03725044 -0.01032827 -0.993193 -0.108574 -0.0387121
-0.01939461 -0.04525366 -0.01408488 -0.793193 -0.60446 -0.0296565
-0.01567544 -0.04620769 -0.0177014 -0.0437069 -0.998626 0.0252261
-0.01511681 -0.04615494 -0.01343073 -0.0804018 -0.996682 0.0123319
-0.008557655 -0.04673049 -0.01687884 -0.0702617 -0.997448 0.0125208
-0.003505409 -0.04702529 -0.01607431 -0.049916 -0.998527 0.0210282
0.001044894 -0.04719834 -0.01512256 -0.0347214 -0.999168 0.021369
0.00688376 -0.0473448 -0.01838629 -0.00332251 -0.999947 0.00865445
0.01511038 -0.04724326 -0.02001985 0.0481024 -0.9987 0.0139888
0.01236401 -0.04724761 -0.01544574 0.0160514 -0.999821 0.00983947
0.00595603 -0.04727131 -0.0136296 -0.00797246 -0.999688 0.0234935
0.001781084 -0.04710684 -0.0102763 -0.0305284 -0.999265 0.0227618
-0.002226753 -0.04699831 -0.0119334 -0.0424751 -0.998775 0.0251456
-0.008461187 -0.04666933 -0.01250188 -0.0599534 -0.997966 0.0214361
-0.01224194 -0.04634205 -0.009721693 -0.0779684 -0.996729 0.0209526
-0.01664063 -0.04598279 -0.008786501 -0.0588698 -0.997975 0.0199424
-0.0084832 -0.04655069 -0.007309855 -0.073827 -0.996586 0.0368307
-0.003905023 -0.04681849 -0.007728908 -0.0477992 -0.9986 0.0223303
0.0004484794 -0.04696861 -0.005825105 -0.0313659 -0.9992 0.024383
0.006011597 -0.04716722 -0.009010209 -0.0133598 -0.999577 0.0256128
0.0118239 -0.0471873 -0.008685868 0.00548712 -0.99973 0.0223554
0.01753631 -0.04613363 -0.01199263 0.799501 -0.598454 0.0460219
0.01859428 -0.04370628 -0.01692195 0.977405 -0.202615 0.0602038
0.01984781 -0.0388921 -0.02195207 0.980132 -0.191888 0.0500068
0.02006123 -0.03658535 -0.01827698 0.982463 -0.177548 0.056879
0.02119536 -0.03043599 -0.02007152 0.986952 -0.149573 0.0595243
0.0218268 -0.02639763 -0.02104699 0.988005 -0.140068 0.0647999
0.02207245 -0.02302758 -0.01789895 0.992691 -0.111399 0.0447584
0.02271043 -0.01796073 -0.02118838 0.994148 -0.0896557 0.0601648
0.02260182 -0.01668121 -0.01707711 0.994759 -0.0720767 0.0724188
0.02296638 -0.01199427 -0.01793288 0.995322 -0.0794222 0.054996
0.0230937 -0.007721774 -0.01595323 0.998542 -0.0349831 0.0372566
0.02334428 -0.001182121 -0.01630312 0.99832 -0.0107064 0.0566548
0.02346705 0.005902265 -0.01679408 0.996726 -0.00361171 0.080751
0.02330485 0.0134466 -0.01445717 0.990416 0.0337732 0.13259
0.02317504 0.01918333 -0.0150651 0.998026 0.0260472 0.0565229
0.02286903 0.02171787 -0.01156587 0.997024 0.049153 0.059248
0.02250071 0.0253862 -0.008802697 0.99646 0.0634016 0.0551548
0.02279324 0.01849471 -0.008374227 0.996996 0.0328959 0.0700344
0.02299117 0.01454575 -0.009852446 0.997614 0.0202838 0.0659754
0.02302871 0.007393396 -0.009960564 0.997991 -0.0208435 0.0588662
0.02315414 0.003212587 -0.01154196 0.995593 0.00129715 0.0925202
0.02300191 -0.004798818 -0.01216245 0.997801 -0.0243001 0.0613154
0.02270467 -0.009110703 -0.01074338 0.992807 -0.0619986 0.102295
0.02261268 -0.01291635 -0.01260902 0.996839 -0.0715562 0.0305173
0.02229911 -0.0177458 -0.01241417 0.995628 -0.0684259 0.0627538
0.02157457 -0.02491626 -0.01370423 0.995616 -0.088172 0.0221668
0.02130339 -0.02818916 -0.01648639 0.984961 -0.162489 0.057521
0.02063041 -0.03270369 -0.01641027 0.985819 -0.159832 0.0510869
0.01994147 -0.03569773 -0.01312728 0.983044 -0.174685 0.0557522
0.01923544 -0.03982758 -0.01456356 0.979169 -0.195438 0.054962
0.02057915 -0.03161286 -0.01210219 0.986622 -0.153201 0.0555964
0.02108996 -0.02731218 -0.0100316 0.98758 -0.142207 0.0666441
0.02177135 -0.02216006 -0.01053721 0.991966 -0.105233 0.0699365
0.02171401 -0.02026913 -0.00676725 0.995073 -0.0894495 0.0419603
0.02223465 -0.01465329 -0.008688829 0.995245 -0.0667111 0.0703668
0.02270441 -0.005499079 -0.007955869 0.997223 -0.0508963 0.0541047
0.02227999 -0.009067344 -0.004201222 0.996625 -0.045673 0.0681997
0.02205366 -0.01370959 -0.004439773 0.996205 -0.0592799 0.0636395
0.02119399 -0.02470276 -0.006028646 0.990856 -0.122953 0.0555292
0.02061122 -0.02873244 -0.004595654 0.989836 -0.131953 0.052857
0.01967531 -0.03575537 -0.008262061 0.983886 -0.173491 0.0431203
0.01852467 -0.04199065 -0.009534892 0.976216 -0.213096 0.0398084
0.01903941 -0.03852805 -0.004375588 0.982441 -0.18355 0.0328736
0.01995981 -0.03315858 -0.004460168 0.986785 -0.155576 0.0451428
0.02007 -0.03108199 -0.0007955471 0.988742 -0.138228 0.0572442
0.01934143 -0.03578965 -0.0005415985 0.985756 -0.160786 0.0492258
0.01807567 -0.04346966 -0.003664327 0.978841 -0.202013 0.0264839
0.0163384 -0.04689236 -0.005968818 0.343108 -0.93443 0.0419034
0.0150439 -0.04688887 -0.0003409388 0.0874126 -0.995714 0.0201615
0.008851932 -0.047079 -0.00482862 0.00571328 -0.999724 0.0221611
0.004212049 -0.04701959 -0.00397022 -0.0267117 -0.999349 0.0241721
-0.001957929 -0.04677493 -0.002143564 -0.0438248 -0.998781 0.0223935
-0.006648858 -0.04654697 -0.002935 -0.0554871 -0.998142 0.0243657
-0.01282571 -0.04619684 -0.005448178 -0.0808152 -0.996548 0.0185677
-0.01327839 -0.04606221 -0.000461024 -0.0698411 -0.997389 0.017949
-0.01768408 -0.04582202 -0.0006612384 -0.106578 -0.994111 -0.000397744
-0.0156149 -0.04585757 0.003096506 -0.0629558 -0.997932 0.0127142
-0.008147652 -0.04638609 0.00142795 -0.0509164 -0.998602 0.0139381
-0.001144678 -0.04670037 0.003056413 -0.0382737 -0.999091 0.0187635
0.002597 -0.04687639 0.0009073336 -0.0219944 -0.999403 0.0262499
0.006771589 -0.04695744 -0.0001575398 -0.00727713 -0.999849 0.0155239
0.01082945 -0.0469261 0.001039975 0.0076542 -0.99973 0.021825
0.008402277 -0.04686925 0.004472082 -0.00635102 -0.999748 0.0214941
0.01314618 -0.04681063 0.005419353 -0.00999359 -0.999749 0.0194298
0.01028991 -0.04677067 0.009173706 0.00557057 -0.999704 0.023612
0.006031885 -0.04675719 0.008190429 -0.0103735 -0.999395 0.0305796
0.001948794 -0.04674206 0.0059785 -0.0252896 -0.99948 0.0199016
-0.003968103 -0.04649932 0.007148818 -0.0418109 -0.998677 0.029707
-0.008068034 -0.04631347 0.005814342 -0.0527519 -0.998361 0.0220365
-0.01248025 -0.04604298 0.0060262 -0.0661076 -0.997756 0.0103296
-0.02018895 -0.04493958 0.003268978 -0.806244 -0.588875 -0.0164673
-0.02031611 -0.04292451 -0.002686223 -0.996144 -0.0748226 -0.0449412
-0.02012066 -0.0417002 -0.009729025 -0.996775 -0.0690146 -0.0409266
-0.02042394 -0.03954989 -0.005329994 -0.998705 -0.0467154 -0.0198282
-0.0206547 -0.03495942 -0.006556823 -0.997672 -0.0629148 -0.0262779
-0.02090718 -0.03044732 -0.006650407 -0.998897 -0.0438537 -0.0166697
-0.02106169 -0.02577262 -0.008568725 -0.999569 -0.0269136 -0.0116568
-0.02116597 -0.02055803 -0.01051945 -0.999797 -0.0196346 0.00303509
-0.02121372 -0.01574782 -0.0106693 -0.99998 -0.00573166 0.000457736
-0.02110767 -0.007530996 -0.0121145 -0.999618 0.0182939 -0.0200192
-0.0211948 -0.01080542 -0.008799015 -0.999826 0.0160516 -0.00772451
-0.0208481 -0.0002211647 -0.009495806 -0.999007 0.0432332 -0.0105434
-0.02063309 0.004573137 -0.00890027 -0.998756 0.0491023 0.00706423
-0.02023529 0.01123614 -0.009502221 -0.997402 0.0703652 -0.0149385
-0.01979548 0.01678103 -0.0110857 -0.996322 0.0802064 -0.0300295
-0.01957535 0.01991253 -0.007602084 -0.996548 0.0827558 -0.00559897
-0.01892148 0.02624111 -0.01015133 -0.992704 0.116691 -0.0285152
-0.01857065 0.02973752 -0.00596577 -0.992145 0.121458 -0.0297885
-0.01794018 0.03480303 -0.004542058 -0.990891 0.127689 -0.0425286
-0.01722934 0.03974008 -0.005370016 -0.987722 0.15131 -0.0381088
-0.0146694 0.04303221 -0.0138979 -0.420202 0.906292 -0.0428575
-0.01447533 0.0433511 -0.008127395 -0.350423 0.935338 -0.0412471
-0.01102613 0.04350661 -0.01107936 -0.015872 0.999299 -0.0274258
-0.003665567 0.04346342 -0.01019097 0.0190064 0.999806 -0.000445732
0.001124837 0.04336051 -0.00933204 0.044949 0.998875 -0.00220064
0.007735188 0.04308316 -0.01011139 0.0601847 0.99815 0.00700432
0.01271438 0.04278113 -0.008314013 0.0658478 0.997806 0.00154638
0.01715174 0.04246946 -0.009459732 0.0214985 0.999403 -0.0244651
0.00528992 0.04317524 -0.006468645 0.0533481 0.99856 -0.00326347
0.009698968 0.04293658 -0.004891668 0.0311905 0.999429 -0.0125259
0.001841166 0.04332976 -0.003901861 0.037466 0.999253 -0.00865588
-0.004343356 0.04350615 -0.005612784 0.0199084 0.9998 -0.00132798
-0.009173796 0.04357415 -0.004205775 0.010536 0.999931 0.00143165
-0.01353957 0.04374827 -0.0002310848 0.0347387 0.998045 -0.0398072
-0.008974848 0.04366761 0.001791253 -0.00840873 0.999799 -0.0171354
-0.001436318 0.04344862 -0.0006124248 0.03395 0.999292 -0.0161417
0.006240619 0.04311409 -0.002258277 0.0354043 0.999107 0.0224518
0.01427762 0.04266309 -0.003636593 0.0666908 0.997513 -0.021241
0.01151256 0.04284724 0.002253164 0.0671312 0.997729 -0.00422762
0.00288237 0.04330762 0.0009199806 0.0492529 0.998776 -0.0014654
0.007106603 0.04310809 0.004376665 0.040457 0.999177 -0.000524398
0.0006124432 0.04343434 0.004491149 0.0466676 0.998568 -0.0258196
-0.004136626 0.04358113 0.002645179 0.038946 0.999177 -0.0111022
-0.004253008 0.04362921 0.007787737 0.0125381 0.999725 0.0174786
-0.009615527 0.04371546 0.006774924 0.0212593 0.999639 -0.0119691
-0.01375103 0.04388716 0.008795341 -0.00587618 0.998176 -0.0581048
-0.01615405 0.04310697 0.004987746 -0.423216 0.905257 -0.034666
-0.01709938 0.04150217 -0.001112802 -0.962425 0.264584 -0.0476772
-0.01780431 0.03668287 -0.0003680678 -0.989438 0.138354 -0.0407196
-0.01843565 0.03205122 0.0002554012 -0.992766 0.113423 -0.0392364
-0.01934971 0.02314712 -0.003996702 -0.994476 0.101286 -0.0275288
-0.01991893 0.01571451 -0.006916095 -0.997022 0.0739636 -0.0214415
-0.02023005 0.01203117 -0.004413994 -0.997449 0.0708442 -0.00865505
-0.0205157 0.007356889 -0.004914196 -0.998383 0.0549832 -0.0143399
-0.02083612 0.0007030779 -0.005312699 -0.998986 0.0448136 -0.00385311
-0.02101577 -0.00394015 -0.006019751 -0.99923 0.0372657 -0.0120638
-0.02117708 -0.009378999 -0.003874367 -0.999743 0.0210173 0.00829167
-0.02122403 -0.0166609 -0.006492046 -0.999926 0.0013932 -0.0109894
-0.02117942 -0.02174206 -0.006121786 -0.999734 -0.0178584 -0.01446
-0.02124414 -0.01939237 -0.002477287 -0.999895 -0.00556917 -0.0126959
-0.02123827 -0.01415022 -0.002559792 -0.999528 0.0150272 -0.0265903
-0.02119816 -0.02382709 -0.001388441 -0.999696 -0.0216577 -0.0112692
-0.02103935 -0.02828819 -0.002407863 -0.998661 -0.0460523 -0.0234531
-0.02084222 -0.0327725 -0.00237475 -0.998224 -0.0489181 -0.0335827
-0.02061177 -0.03844174 -0.0005203902 -0.997961 -0.06081 -0.0180051
-0.020842 -0.03537138 0.002691831 -0.998661 -0.0418742 -0.0302051
-0.02102537 -0.03071609 0.00226219 -0.998958 -0.0364809 -0.0273738
-0.0212476 -0.02420785 0.002909044 -0.999744 -0.0179038 -0.012652
-0.02129034 -0.01891248 0.001811439 -0.999753 -0.00321946 -0.0217144
-0.02127579 -0.01291748 0.002580123 -0.999736 0.0227051 0.000516801
-0.02112805 -0.00713735 0.0003394145 -0.99947 0.0262761 -0.0180496
-0.02099582 -0.003172013 -0.001195385 -0.999059 0.0433392 -0.000585524
-0.02082508 0.001679096 -0.0001740805 -0.998789 0.0351727 -0.0331485
-0.02060549 0.00605622 -0.0007960467 -0.998805 0.0486936 -0.0035344
-0.02038921 0.01019704 0.0006592963 -0.997973 0.0606703 -0.0187096
-0.02001722 0.01577368 7.900949e-05 -0.996849 0.0768206 -0.0193628
-0.01968524 0.01987391 -0.001233475 -0.996338 0.084979 0.00915599
-0.01888923 0.02796895 -0.0009794998 -0.993753 0.111194 -0.00681933
-0.01935567 0.02395244 0.001269134 -0.995241 0.0931652 -0.0284564
-0.01886453 0.02973514 0.004428179 -0.993008 0.109792 -0.0432886
-0.01842154 0.03401117 0.005559365 -0.99151 0.120679 -0.0483678
-0.01778868 0.03842449 0.003925966 -0.993495 0.0956861 -0.0602212
-0.01824891 0.03654428 0.009589481 -0.984395 0.169631 -0.0466056
-0.01753473 0.04187907 0.009845478 -0.948242 0.312218 -0.0547681
-0.01815325 0.03906999 0.01484669 -0.992741 0.119524 -0.0130365
-0.01896375 0.03074414 0.01035215 -0.986652 0.106155 -0.123053
-0.01933684 0.02580931 0.008692494 -0.996148 0.0873288 -0.000122817
-0.01993467 0.01831718 0.005184522 -0.996751 0.0742188 -0.031016
-0.02022097 0.01401991 0.004945532 -0.997481 0.0605273 -0.0365933
-0.02058716 0.006882034 0.003498876 -0.998411 0.0542232 -0.0153062
-0.02090591 -0.0003869834 0.003515714 -0.999753 0.0027878 0.0145555
-0.02109884 -0.004414164 0.007051076 -0.999351 0.0344985 0.00843897
-0.02124621 -0.01031711 0.006049757 -0.999663 0.0212526 -0.0146045
-0.02132484 -0.01671624 0.005965139 -0.999804 0.0109657 -0.0162569
-0.02134566 -0.02138088 0.007974039 -0.999538 -0.00320681 0.0298811
-0.02128218 -0.02647508 0.006616291 -0.999151 -0.0320339 -0.0244317
-0.02107483 -0.03309294 0.008320115 -0.999297 -0.0351705 -0.0111581
-0.02071647 -0.03962838 0.004001095 -0.999065 -0.0332963 -0.0274645
-0.02089414 -0.03753429 0.008145199 -0.999076 -0.0347515 -0.0237948
-0.02071208 -0.04288663 0.00874206 -0.998164 -0.0403088 -0.0447124
-0.02096018 -0.03984293 0.01170872 -0.997357 -0.0664275 -0.0275693
-0.02116965 -0.03585174 0.0136832 -0.999282 -0.0350226 0.0129523
-0.02130166 -0.03003944 0.01366144 -0.998489 -0.0164514 0.0501542
-0.02135065 -0.02524339 0.01150409 -0.996365 -0.0343164 -0.0775794
-0.0213063 -0.01758767 0.01019931 -0.999425 -0.00205978 -0.0279974
-0.02122483 -0.0104352 0.01037216 -0.999301 0.0191038 -0.0315715
-0.02089231 0.0003737352 0.008367809 -0.998189 0.059045 0.000191836
-0.0207687 0.004645453 0.00706414 -0.999025 0.0420482 0.00887337
-0.02047816 0.01015137 0.008128053 -0.998564 0.0472628 0.0250891
-0.02014778 0.01614729 0.01017107 -0.995463 0.0559605 -0.0760397
-0.0197019 0.0216694 0.008218087 -0.997499 0.0693232 0.0124661
-0.01997298 0.02002009 0.01217147 -0.999042 0.0403976 -0.00675514
-0.02053376 0.01093636 0.0128133 -0.997532 0.0621918 0.0304185
-0.02078051 0.005442624 0.01188147 -0.999147 0.0397795 -0.00834924
-0.02090667 0.0007721116 0.01456644 -0.999442 0.0328451 0.00327948
-0.02119894 -0.006598999 0.01267433 -0.999687 0.012775 0.0211134
-0.02137296 -0.01538183 0.0137536 -0.999395 0.00786451 0.0338326
-0.02141792 -0.02080244 0.01331876 -0.997878 0.00117901 0.0643414
-0.02138732 -0.02582466 0.01640139 -0.998831 -0.0138725 -0.0458429
-0.02161519 -0.02978739 0.01858221 -0.992096 -0.0192113 0.119686
-0.02124279 -0.03313473 0.02118968 -0.994374 -0.0251001 0.102896
-0.02107011 -0.03943055 0.01596561 -0.999116 -0.0359053 -0.0207268
-0.02088658 -0.04373333 0.01460016 -0.996467 -0.0758065 -0.0265204
-0.02095943 -0.0443975 0.01898744 -0.898808 -0.412394 -0.0202455
-0.01979301 -0.04526396 0.02561338 -0.177809 -0.983897 0.0153928
-0.01473137 -0.0457969 0.01048148 -0.0744774 -0.997033 0.0192221
-0.007660341 -0.04620931 0.01110546 -0.04495 -0.998808 0.0183139
-0.01107129 -0.04595853 0.01367645 -0.0266949 -0.998666 0.041929
-0.003941168 -0.04634057 0.01398897 -0.0383658 -0.999012 0.0220281
0.001327271 -0.04657952 0.01133056 -0.0340247 -0.999271 0.0170909
0.006234151 -0.04660293 0.01402644 -0.00809498 -0.999489 0.0307061
0.01430524 -0.04669879 0.01033629 0.0427738 -0.998879 0.019845
0.01714207 -0.04556749 0.006062715 0.861709 -0.505209 0.0354555
0.01778613 -0.043948 0.001418133 0.978147 -0.203973 0.0400441
0.01858978 -0.03956495 0.001758873 0.983452 -0.176118 0.0424344
0.0181959 -0.04070349 0.006345553 0.984061 -0.172122 0.0446415
0.01885852 -0.03638808 0.007372687 0.987409 -0.149919 0.0503946
0.01989069 -0.03050382 0.003852675 0.989999 -0.128871 0.057361
0.02071044 -0.02536014 0.000408837 0.992224 -0.107167 0.0632241
0.02137005 -0.0208318 -0.002180708 0.992737 -0.0967993 0.0713976
0.02171254 -0.01454964 -0.0003263257 0.995733 -0.0600924 0.0700156
0.0218058 -0.01023906 0.001625129 0.996289 -0.0478079 0.0715409
0.02214285 -0.005736236 -0.0004010251 0.996658 -0.0346268 0.0739661
0.02271896 0.0005623742 -0.006068393 0.997201 -0.0171988 0.0727166
0.02272587 0.006480666 -0.005300013 0.997152 -0.00452838 0.075271
0.02273109 0.01249653 -0.005639198 0.997603 0.0132617 0.0678601
0.02254904 0.01652345 -0.003899099 0.997402 0.0217261 0.0686522
0.02235014 0.02371299 -0.004724365 0.996717 0.0491676 0.0641814
0.02204916 0.02876336 -0.004693792 0.996469 0.0604748 0.0581821
0.02186688 0.03485446 -0.009982642 0.995831 0.0806131 0.0426189
0.02140437 0.03808247 -0.005862799 0.996734 0.0726481 0.0350949
0.02150341 0.0353532 -0.002701732 0.996258 0.0722007 0.047372
0.02097018 0.04114164 -0.002796262 0.954352 0.294723 0.03859
0.02077245 0.04098816 0.004244929 0.97668 0.208395 0.0280673
0.02121514 0.03658202 0.001556992 0.996411 0.0717279 0.0449071
0.02170369 0.03036032 -0.0002186122 0.997031 0.0553773 0.0534793
0.02187434 0.02583989 0.001056629 0.996755 0.0524969 0.0609646
0.02212869 0.02112345 0.0003474403 0.997043 0.0341323 0.0687048
0.0222437 0.01482557 0.0008335799 0.997475 0.0130255 0.0697961
0.02252307 0.009836463 -0.002400344 0.997311 0.00228889 0.0732132
0.02250089 0.003310702 -0.002584649 0.997475 -0.0101842 0.0702464
0.02240073 -0.002028019 -0.002379061 0.997116 -0.0248986 0.0716357
0.02215268 0.001551383 0.002121416 0.996951 -0.0159966 0.0763556
0.02222756 0.00682167 0.001545919 0.997427 -0.00079712 0.0716808
0.02187206 0.007883159 0.006439276 0.997187 -0.00278286 0.0748988
0.02195872 0.01351462 0.005017656 0.997407 0.0087006 0.0714253
0.02186409 0.01839612 0.005441755 0.997411 0.0238689 0.067753
0.02176921 0.02307527 0.004741806 0.99724 0.0362524 0.0647539
0.02152606 0.02715279 0.005871331 0.997012 0.0447775 0.0628692
0.02142858 0.03136675 0.004128541 0.997202 0.0503075 0.0552124
0.02099737 0.03709751 0.005898085 0.996534 0.0673966 0.0487155
0.02094997 0.0349163 0.009505252 0.996869 0.0577805 0.0539751
0.02119422 0.03076115 0.008784843 0.997409 0.0434372 0.0573204
0.02138957 0.02364119 0.01015923 0.997398 0.0341701 0.0634142
0.02113847 0.02765286 0.01188464 0.997688 0.0365284 0.0572666
0.02152787 0.01629831 0.01075029 0.997788 0.0144861 0.0647845
0.02167117 0.0112747 0.009266214 0.997496 0.00207057 0.0706679
0.02166089 0.004574426 0.009128226 0.997342 -0.00766771 0.0724255
0.02182078 -0.001897823 0.00553667 0.997242 -0.0235385 0.07037
0.02172509 -0.006507858 0.004971384 0.996704 -0.0372533 0.0720569
0.02143483 -0.01064619 0.006617784 0.996348 -0.043899 0.0732275
0.0213273 -0.01518372 0.00480545 0.995761 -0.0630064 0.0669734
0.02087983 -0.02084409 0.004805763 0.993406 -0.0895731 0.0715447
0.02028657 -0.02645122 0.005356718 0.992053 -0.109481 0.0619884
0.01941724 -0.03213422 0.008478122 0.989639 -0.13262 0.0548966
0.01974819 -0.02845088 0.0105236 0.992392 -0.110455 0.0532311
0.02037142 -0.02301521 0.009672316 0.991866 -0.0947732 0.0846496
0.02070457 -0.01826297 0.01039608 0.995092 -0.0694996 0.0704374
0.02104646 -0.0141993 0.009357447 0.99523 -0.0557266 0.0800237
0.0211868 -0.009359607 0.01066963 0.996295 -0.040435 0.0758551
0.02145476 -0.001840793 0.01040849 0.996568 -0.0244826 0.0790574
0.02086721 -0.008134609 0.01556228 0.994777 -0.0218905 0.0990139
0.02062324 -0.01311645 0.01618415 0.997467 0.00120192 0.0685592
0.02038269 -0.01736804 0.01609108 0.998132 -0.0101125 0.0592064
0.02014025 -0.02139589 0.01441723 0.992511 -0.104267 0.0630718
0.01919081 -0.03167799 0.01368435 0.989879 -0.125546 0.0661209
0.01883965 -0.03516921 0.01140952 0.988487 -0.143865 0.0468198
0.01822832 -0.03927689 0.01088061 0.985224 -0.166886 0.0383893
0.01744967 -0.04353262 0.01198911 0.975882 -0.213634 0.0447339
0.01735122 -0.04295632 0.01633661 0.986432 -0.154891 0.0538517
0.01834425 -0.03708611 0.0154831 0.986823 -0.150937 0.0582127
0.01876292 -0.03287505 0.01810186 0.990513 -0.125521 0.0557828
0.01945391 -0.02737158 0.01715107 0.993669 -0.107951 0.0291748
0.01979871 -0.02321426 0.01816038 0.994255 -0.0605498 0.0882275
0.01977966 -0.0203392 0.02166166 0.994258 -0.0647419 0.08387
0.02018617 -0.01536709 0.02034261 0.996696 -0.0393518 0.0709518
0.02050965 -0.008125307 0.01990871 0.994473 -0.0664985 0.0794971
0.02085628 -0.003032095 0.01699442 0.998726 -0.0174352 0.0452419
0.02110579 0.003244336 0.01635808 0.996829 -0.0121905 0.0782092
0.02131402 0.008116866 0.01425291 0.997016 -0.00732953 0.0768226
0.02137585 0.01288966 0.01352269 0.997456 0.00466417 0.0710586
0.02121071 0.01705511 0.01523377 0.997298 0.0117258 0.0724543
0.02121422 0.02125273 0.01405511 0.997594 0.0255063 0.064419
0.02093837 0.02630444 0.01619321 0.997688 0.0308124 0.0604889
0.02066664 0.0337079 0.01601146 0.997688 0.0454849 0.0504861
0.02058184 0.04088439 0.01023449 0.988981 0.142996 0.0255326
0.02054917 0.03813808 0.01376058 0.997156 0.0533922 0.0531743
0.01991092 0.04201077 0.01544449 0.721411 0.685324 -0.00549446
0.01697378 0.04250746 0.003263009 0.109165 0.993988 -0.00201406
0.01678645 0.04258192 0.008269706 0.0850449 0.996269 0.0133558
0.0128885 0.04279467 0.006599921 0.0662226 0.997402 -0.0282527
0.009602216 0.04301807 0.009153404 0.0885598 0.993233 -0.0727239
0.005169624 0.04330121 0.009713018 0.05923 0.997967 -0.0203702
-0.0004563814 0.04354765 0.01023305 0.0123782 0.999837 0.000466146
0.00192764 0.04351076 0.01384736 0.0434038 0.99898 0.00861324
0.007471053 0.04320743 0.01330082 0.0531481 0.998403 -0.0182018
0.01169085 0.04296506 0.01339629 0.0676016 0.99756 -0.0158636
0.0159539 0.04267745 0.01319354 0.0143037 0.999598 -0.0075547
0.009075672 0.04316535 0.01736126 0.060393 0.997001 0.0423671
0.01348826 0.04300486 0.01867408 0.0432926 0.998264 -0.0318216
0.004221389 0.04339284 0.01778658 0.0596024 0.994684 -0.073894
-0.006523376 0.04378986 0.01330145 0.0187397 0.999812 -0.00355791
-0.01043825 0.04384111 0.01178587 0.0567715 0.998018 -0.0248115
-0.01460366 0.04397956 0.01328479 -0.0739971 0.996459 -0.0152588
-0.009598749 0.043937 0.01652678 -0.00284093 0.999808 0.00287463
-0.005038728 0.04381116 0.01750673 0.0604947 0.997906 0.0106421
-0.0008280148 0.04365509 0.02078923 0.0597856 0.995366 0.068565
-0.005039003 0.04383064 0.02227696 0.0292189 0.999105 -0.0290397
-0.008915598 0.04383512 0.02070687 0.0442098 0.998662 0.022134
-0.01398054 0.04412146 0.02072708 0.0619342 0.997847 -0.0205392
-0.01565029 0.04414959 0.02499381 -0.245458 0.967155 -0.0255595
-0.01772248 0.04234581 0.01920224 -0.860229 0.505457 0.045206
-0.0182851 0.0403445 0.0229338 -0.975514 0.0505421 -0.212808
-0.01874849 0.03362927 0.01363653 -0.992413 0.114758 -0.0439872
-0.0194188 0.02691855 0.01272286 -0.995661 0.0883639 0.0276604
-0.0197676 0.02265424 0.01594675 -0.992764 0.0774572 -0.080946
-0.02014686 0.01691276 0.01576791 -0.997367 0.0532473 -0.0422506
-0.02058991 0.01205572 0.01788114 -0.994246 0.057445 0.0736056
-0.02065929 0.007216432 0.01624723 -0.99538 0.0417832 -0.0841677
-0.02119686 -0.0033713 0.01746871 -0.991271 0.0237632 -0.129276
-0.02126083 -0.01061528 0.01628918 -0.998754 0.0360839 -0.0310028
-0.02112665 -0.00719451 0.01994062 -0.994789 0.0328919 0.0963832
-0.02120322 -0.01251201 0.02051337 -0.994095 0.0156399 0.107186
-0.02137816 -0.0178295 0.01991822 -0.995673 0.017913 0.091091
-0.02140417 -0.01825812 0.02413543 -0.997732 0.012438 -0.063853
-0.02125688 -0.02453554 0.02201473 -0.99901 -0.0252549 -0.0176354
-0.02144853 -0.0290308 0.02502486 -0.999946 -0.00181537 -0.00854273
-0.02114712 -0.03818934 0.02098267 -0.995943 -0.0200667 0.0876621
-0.0214152 -0.0349061 0.0252056 -0.999578 -0.012633 -0.0250005
-0.02130091 -0.0412887 0.02574681 -0.999714 -0.00902228 -0.0219823
-0.02140918 -0.03797324 0.02841583 -0.999748 -0.0142058 -0.0172964
-0.02139211 -0.04325031 0.02966172 -0.999515 -0.0277441 -0.0137487
-0.02149063 -0.04153796 0.03356563 -0.999505 0.0116131 -0.0290076
-0.02144903 -0.03115118 0.02997242 -0.999836 -0.00140513 -0.0166708
-0.02142992 -0.02285959 0.0262363 -0.99996 0.00847334 0.00017527
-0.02144963 -0.02651804 0.02872654 -0.999747 0.00831028 0.0203559
-0.02139001 -0.02101275 0.03032691 -0.999745 0.0167784 -0.0148309
-0.02130193 -0.01272392 0.02504174 -0.998819 0.0241196 0.0416699
-0.02116229 -0.006507167 0.02427243 -0.997785 0.0362865 -0.0496982
-0.02082813 0.001421813 0.01964067 -0.99532 0.0434923 0.0860958
-0.02084302 -0.003115374 0.02183159 -0.999703 0.0161585 -0.00780487
-0.02078066 0.003522995 0.02419014 -0.99894 0.0433225 -0.00360769
-0.02047451 0.007678454 0.02103508 -0.997001 0.0485407 0.057443
-0.0201548 0.01578236 0.01993925 -0.995147 0.048684 0.0853093
-0.0203705 0.01161259 0.02285775 -0.993278 0.055 -0.101589
-0.01970217 0.0223315 0.02076012 -0.994449 0.0888346 0.0557829
-0.01934172 0.03012057 0.01777134 -0.993165 0.0789054 0.0842679
-0.01861702 0.03655534 0.01834574 -0.991216 0.109311 0.0738914
-0.01884601 0.03282791 0.02139059 -0.994187 0.0916015 -0.0536031
