0.07169389555625275 0.05173544854758372 0.1809996886311779 0.05914527840335872 -0.7324759825253206 0.6782188224062756 0.16762781136238206
0.07457109706426922 0.04876204263577692 0.17741720388425378 0.0622720626999636 -0.8875218567635648 0.4565382174298736 0.2815111035471124
0.07456098635795454 0.04538480950471215 0.17746178681413394 0.03831252268233747 -0.9484678959456606 0.31454856694336925 0.23918300676374735
0.07493799383100051 0.04547108279132776 0.17763297387626548 0.08668675875428149 -0.7530105505578671 0.652273345005922 0.3383083121827575
0.0748789867468914 0.031737261133719934 0.1785004035337189 -0.0029177638200874397 -0.994114223982632 -0.10829772079642107 0.22508329592495274
0.07785916558611863 0.04237600536390946 0.1755639649000398 0.03237949668716028 -0.990395512001191 0.13441836928851889 0.3782458408832312
0.08027779966843825 0.039637263397257295 0.17354309525902972 0.02650073041417571 -0.9937321701250951 0.10860057709784271 0.4554416778132284
0.07732849526878471 0.04125014526352743 0.17553494029528166 0.01574072863953037 -0.9968281599576537 0.07801185151843917 0.33879242883441546
0.07529200470582428 0.04234081901619141 0.17822781924208822 0.047856425626168986 -0.9212273061740185 0.3860699585381485 0.2895957931178286
0.08091781037488871 0.03616244321832377 0.17436764423318327 0.09434049080392971 -0.935581074727971 0.3402762471959047 0.5363309172652245
0.08637535342881825 0.03270112554448705 0.17011676661058325 -0.10538728098686827 -0.9631839269862671 -0.24732618907327267 0.6886590961484823
0.0873233586845922 0.037257564688870086 0.168874107783627 -0.08522798105073875 -0.9712495765760608 -0.22228461765681742 0.7028538202841709
0.09349613887084568 0.03876859808335454 0.16875233246450588 0.1962365211775032 -0.9311437104560056 0.3073477155183904 1.027402070789648
0.08235319514463574 0.02931217465190533 0.16845032702674093 0.16722655404098805 -0.6893066077320779 0.7049054405808427 0.7043239229281297
0.0798653177748242 -0.0065262963701862384 0.17353050998880548 0.11306604315289391 -0.8580267166623374 0.5010052129263691 0.5009437017846808
0.07801238147440606 -0.015441241024669929 0.17491735603087982 0.08900324675362255 -0.8670925897810113 0.49013147502907095 0.39176113701595683
0.08191142668481785 -0.022990199642584835 0.17286017950832558 -0.0774778009560815 -0.977073240430946 -0.19830550469611444 0.5377297884589852
0.0810784268983795 -0.01773285440713992 0.17261472702876035 -0.016330617001431232 -0.999725085507447 -0.016824516500652094 0.4526819416317419
0.07824078751484988 -0.019624335013252038 0.17487888391493123 -0.025744085841638717 -0.9908509371330861 -0.1324826872714436 0.3512851624097085
0.07897592210720249 -0.015662018392495803 0.17450016792148149 -0.02326187014666303 -0.9928961851672042 -0.11668783517442018 0.38461741105018243
0.07913168474795855 -0.010019995957998752 0.17435441292224466 0.011750644431111693 -0.9982305116374748 0.05829037649079728 0.39196640656438836
0.07725572822054622 -0.012743437650848233 0.17614267740520137 0.013035237188194751 -0.9965154437982736 0.08238357155997382 0.31852972182270106
0.07773036513359703 -0.010203219713805268 0.17608140748470222 -0.029684528128872702 -0.9860287807681258 -0.1639087315754996 0.34769645732124355
0.07652714548584158 -0.004832313686575787 0.1768449503368723 -0.02408139098953167 -0.9870404066388893 -0.1586547265925141 0.2944995284269658
0.07588301244797552 -0.005604325058613656 0.17712443391365085 -0.054417343605137204 -0.8939369903308478 -0.4448768481649568 0.2822813878259872
0.07357712293452762 0.005928628450223111 0.18009657928441034 -0.03929496764543674 -0.8911907254774791 -0.45192366207211204 0.17001048566417598
0.07200464521292002 0.009304168734713666 0.18241131094743215 -0.019255980460103576 -0.9997361586153117 -0.01252279416186153 0.08094358682482307
0.07355209126686657 0.012034169129495871 0.18078690926903707 -0.04472920555019836 -0.9085066035386583 -0.4154696733788149 0.18264214129158735
0.07569645359839369 0.01802200528363048 0.1781551557581374 0.015515353109807999 -0.9977184163276028 0.0657056735649054 0.2755858119805687
0.07406622150285026 0.0161309340658385 0.17938349991083263 -0.015378985490901352 -0.9568256484925579 -0.29025534481222987 0.18960779973041303
0.0741801555338071 0.02156134859382998 0.17928609030000367 -0.0004137319011998877 -0.9992214991390208 -0.03944901119523562 0.18946490533527827
0.07437381517559037 0.023287944628497717 0.17911938505568187 0.01168821142255741 -0.9943078141778252 0.10590257966006897 0.20037173679481232
0.07429262421379217 0.01972001306473653 0.1791985143214259 0.023648726918598647 -0.9727691872796905 0.2305663591991253 0.20680270958098287
0.0745212319437204 0.017309119990198185 0.1787301999713155 -0.01387233132555133 -0.9914826124792987 -0.12949821456228322 0.20942254796142049
0.07393813627210463 0.02573638435397599 0.17973471720000517 -0.0037997323293976005 -0.9994034001503048 -0.034327915786349604 0.18520417591560798
0.07437348161295644 0.027977292159986993 0.17934280991648358 0.002367403731870772 -0.9997725406548593 0.021195809776894944 0.20962702526963795
0.07160235124880528 0.02341726931966113 0.18315291997306035 0.002694022077007496 -0.9999868849483181 0.00435570618932276 0.05527504268574862
0.0711674965369991 0.022334206757203157 0.18412619600862673 -0.004986692668658278 -0.4904846873331526 -0.8714355423024287 0.052866641699708804
0.07040284174068556 0.027036872369896416 0.1852394514671004 -0.01347901054832618 0.9815031772417401 -0.19097075519305975 0.022096844452502522
0.06991028559559784 0.024634216156134967 0.1862627589879404 -0.009051513789726446 0.9839885572123879 0.17800165553499148 0.06225302648785321
0.07006165352986576 0.03047343533478512 0.18575787098539334 0.013991021504723675 0.6938989998894017 -0.7199364064066648 0.06928506001144287
0.07182375956880234 0.03876978380146102 0.18279737618320163 0.058683968052939364 -0.37014677934632195 0.9271178747241943 0.16573679950466094
0.06922278566100738 0.028559466788132426 0.18774603296360667 0.026878195897880642 0.9428821769164095 0.3320403033347726 0.11784573374019
0.06835789459977822 0.026213341551282528 0.1911161201274768 -0.0021442340487891976 0.9949583700534954 0.10026586717739937 0.2108103790842724
0.06842405402237904 0.022239717069563805 0.19069090158525326 0.005215054321468181 0.9995490908024458 -0.02957056449289099 0.2016813106322472
0.06808367333316001 0.018578181688097054 0.1910493227817303 -0.006835484112355222 0.9978238717036376 0.065580463671066 0.2180890069040274
0.07098534404194466 0.016149025846995995 0.18597209972217305 0.047323273711908524 -0.1012257925847739 0.9937373127143673 0.08697253461111075
0.07265694761788555 0.012649800045653761 0.1817849990276529 0.02103330771351508 -0.9368086024096172 0.3492094535060132 0.1220590943539154
0.06993096907613788 0.006566364842909262 0.18602104140293513 -0.044216739257155656 0.5991154057557042 0.7994408111646807 0.11540669605400707
0.07210930584306843 0.000306966182454683 0.18296978685150936 -0.0033887213380288613 -0.8339226308508507 0.5518709652830893 0.08153017499697367
0.07180687589030363 -0.0021337095401312007 0.18301054311737439 0.007741992838453047 -0.687729127797968 0.7259261039011722 0.062179339617318474
0.07322661643753932 -0.006646432267491429 0.18136782452055475 -0.006070200948034283 -0.9997582653154068 0.02113205134337946 0.12664114606422547
0.07400055127107462 -0.009526475273613017 0.17998201587769702 0.009833766665883415 -0.9921675727967233 0.12452632060660705 0.17075809378419424
0.07376539003943461 -0.011671600728853449 0.18028834998638207 0.016670475454755 -0.9737906986813718 0.2268342355328188 0.1558635606861657
0.07391861395711366 -0.01808496507058499 0.18009710401525314 0.03305764387148904 -0.9197004449325645 0.3912266399064725 0.1811090620327239
0.07497711956700437 -0.021957413812465704 0.17860809479636808 0.04374599415450421 -0.9167114486676596 0.3971478413350313 0.2332441403835926
0.07292753892341602 -0.02640663219589781 0.17943973114142137 0.028887333144123197 -0.9948973693340987 0.09666822888576393 0.09572232132347655
0.07378851124291966 -0.025102970071498948 0.18068507831028416 0.05846036344511936 -0.8036018423934356 0.5922891732994457 0.19721423111095282
0.07082604526222681 -0.03507301342798244 0.18380278471026712 -0.017081693524791476 0.2440220011193497 0.9696192441964182 0.13833053942732404
0.07172390536966976 -0.04111841515213895 0.18313039062503036 0.005388916252397207 -0.14705082707511033 0.9891142572211518 0.11006828600042547
0.07366772662734977 -0.04943464362890754 0.1809087608978421 0.009090793347811932 -0.9471681823508703 0.32060847122067154 0.12842592356341131
0.07317937868354182 -0.04678902721872486 0.18177573650317455 -0.011820764037853038 -0.9701464686392599 -0.242231498621329 0.0969624677205543
0.07407414076522438 -0.044899529881542624 0.1801186813577259 0.06379575926349418 -0.6296455504451935 0.7742587305962805 0.2292201261863074
0.07413946160664657 -0.06260520861675431 0.1813490365156576 0.04613664085573047 -0.2652819020931009 0.9630664166050106 0.38386664278086485
0.07161908626366532 -0.06073537187965701 0.1852629709198476 0.019513935854670646 0.12517627217102337 0.9919425926901343 0.17246138195244862
0.071201424436026 -0.05532878922322457 0.18527019490726784 0.01671352799224204 0.5082171653309339 0.8610667632913507 0.05616762077211938
0.07060521487372558 -0.05171023886784975 0.18630412278466044 -0.0023462167902585426 0.9346971858162187 0.3554372885531485 0.07328002143007989
0.07123533348966828 -0.048942480382724717 0.18501913288492866 -0.0010411635345498862 0.9993395542635457 0.03632315050807245 0.023256195508741397
0.07073760680717636 -0.044632063518828674 0.18538258023465504 0.016885004599843566 0.8972170676569508 -0.4412668468452235 0.0666612288819829
0.07182906289063971 -0.03866565631125664 0.1829768949766402 0.03504383201008539 -0.8839749550550543 0.4662190565318661 0.0356669019514436
0.07045235101050894 -0.03768945883008555 0.18422504388903738 -0.026811365654706244 0.6680581529534486 0.7436258837239035 0.08112104517742307
0.07087517606093556 -0.03647331687010758 0.18625519882105726 0.011927655682260629 0.38316174688508964 -0.9236042479081026 0.10226072076868863
0.06975716104480495 -0.030176838033857865 0.18653067454983355 -0.026085879283672193 0.9863003997312569 0.16288354242206501 0.1103654940678209
0.07207401347505338 -0.02873395422512512 0.18289622866964725 -0.07054272609072713 -0.32587813223606954 -0.9427763078938818 0.18041825008981363
0.07670687735423687 -0.01574715726621996 0.177186154692943 -0.08433043348968569 -0.8607164201713594 -0.5020514137365228 0.3484705825998132
0.07647072521372063 -0.01434004807495551 0.1774490128269654 -0.00035038872301851147 -0.9995072536215903 0.031386735822133666 0.2870722261771653
0.07726378964028906 -0.02171693853482645 0.1759321727629623 -0.0007483594560001798 -0.9999861597944606 0.005207703683196158 0.30810694115613313
0.07474854203541224 -0.02617594859797003 0.17823416215688204 0.038802321204036025 -0.8157447700337235 0.577109045182803 0.23235821839094586
0.07686301204309236 -0.02668799566907244 0.17734373053635202 -0.1288424115324802 -0.8038276364393204 -0.5807415637672841 0.406619916087188
0.07595935457160866 -0.01490732432733007 0.17766993484986393 -0.06375792654874554 -0.9451503955935605 -0.32035239426534784 0.2737660647128433
0.07537610134842897 -0.018763051795857532 0.17794402698147502 -0.00633605674611488 -0.9990326209874046 0.04351639447319521 0.23035500947032483
0.07256799883579368 -0.02292989045308213 0.18177349739676485 0.00909488922113546 -0.49474710748601686 0.8689894030563752 0.1844806894967288
0.07125945049193412 -0.033171396141910725 0.18477121712880762 0.14017543996667103 0.36074136882497765 -0.9220718577466898 0.014991464303737809
0.07419088287659552 -0.024514122688015005 0.18112933666159609 -0.05250433576126929 -0.907191103406111 -0.4174297505294402 0.2087377711835933
0.0730526741657493 -0.015401626510986251 0.18180025119124774 -0.03327924627264578 -0.918673953342588 -0.39361232096750354 0.12915865280147215
0.07186980645808436 -0.012831018727016776 0.1830825811448406 -0.027453538692450465 -0.8987516219399959 -0.4375977893836863 0.050965488764631146
0.0707619436511879 -0.011570792407420288 0.18528352956572697 -0.021122803196328675 0.9684959562639137 -0.24813183972553063 0.022815939162589373
0.06996337787232577 -0.009738621540812389 0.18650493172401955 0.003273342919146529 0.9933858286050851 -0.11477752721122012 0.08255248937407715
0.07029501989513866 -0.005013548469823914 0.1859988277810173 -0.0054959235252768236 0.9598312222293002 0.28052418729658957 0.05639726113821658
0.07010877346531581 -0.006263914294039983 0.18633393122574973 -0.009668576384841459 0.9629362009480769 0.2695559154134361 0.0759103372373646
0.07063449288207391 -0.008792302683859556 0.18597361621339695 -0.013521148253787002 0.5582379982491139 0.8295706816545056 0.07207826748096792
0.07043246920025484 -0.016363963413473345 0.18609090934535677 0.011124396300096952 0.9597977321993115 -0.2804720326022136 0.051313539045959686
0.06914021714018577 -0.01391014566482427 0.18888285484946798 -0.005167639953777237 0.9994436641231508 0.03294932080330459 0.15985426153324372
0.06851149138127115 -0.021082597972671327 0.1893994096513757 -0.0061918754953496176 0.9987313306698128 0.04997389134693467 0.20961776650145592
0.0682503705533903 -0.023039519281900466 0.19063402194417678 -0.003204686051980668 0.9996831159974204 0.024967930971470653 0.24597929521855158
0.06880896797816483 -0.02171840472777152 0.19049877988756667 -0.024041182479756763 0.970561793717941 0.23964938163906827 0.21695390450967122
0.06987576427398703 -0.02700848863082807 0.1872561046664944 -0.009165904172098656 0.9899317772885569 -0.1412482301305995 0.09906555806908755
0.07259690818729861 -0.027030291906717404 0.1821910015624142 0.02764194493158667 -0.9513875522326337 0.3067533998787898 0.09449850037873757
0.06899914067649197 -0.0324437076035905 0.1888446980598978 -0.049554909786869765 0.9168881865524741 0.3960560115394423 0.1994830913729213
0.06959017141526637 -0.03778329684062456 0.1893733072458983 -0.03979869552705291 0.8640860526653756 0.5017682307834114 0.15928134956226653
0.06991947003703618 -0.04311291881222789 0.1870949922671219 -0.04535393954639798 0.6834558129358422 0.7285816165206399 0.1796336044785677
0.0696195252646925 -0.04946045354411937 0.18920189378832303 -0.005224334950522708 0.992919628508416 0.11867315470245972 0.16093896032049118
0.07060700918867249 -0.04644422796418603 0.18744632476900094 -0.00026741369645176966 0.9995867146174447 -0.028745929280822993 0.08285923946861558
0.07108442005729862 -0.0419783486368647 0.18539356264753895 0.0035893839505769702 0.4666983126539224 -0.8844092951167107 0.06737724030240311
0.06977920843233426 -0.03360704419940678 0.18791156172815432 -0.021146551339635177 0.9927013232281844 0.11873039302323485 0.12250280577048989
0.06905938231919731 -0.032795418238464144 0.19051169526587627 0.03578919094359358 0.9479664559918866 -0.31635222794503204 0.2109715520983022
0.06813421759672916 -0.025937088852362806 0.1913822948076259 -0.005587399310090488 0.9997967011621948 0.019373624187082494 0.2654144757125613
0.06834641801142706 -0.029128841204554085 0.19164807293192812 -0.006411349868990323 0.9991011001718919 0.04190329614926105 0.2601879308386967
0.06837299019432454 -0.02644449506570812 0.1919071569542571 0.010711733011042043 0.9965530792422558 -0.08226310855224551 0.2640027286342489
0.0690768138166042 -0.02492106366653293 0.19111837843635154 -0.012524146634764245 0.9880371925993793 0.15370638175237952 0.20542715589374813
0.06850953781280811 -0.02178828270735439 0.1916828967438899 -0.05499940504069802 0.9012019993779067 0.4298953614106958 0.27107739277737924
0.06872704577410631 -0.029516286210430242 0.19337313650781918 -0.011446473304687404 0.9956466691718356 0.09250236978539685 0.26651706178052864
0.06921694985402768 -0.027386440456851187 0.19232869684552065 -0.03558300884195627 0.9331055553378852 0.3578377734104242 0.23065804935109058
0.06839211597735276 -0.03221434025604302 0.19348518750725954 0.004595733144880141 0.9999812184688699 0.004054866998502407 0.2922367872345249
0.06837628787592932 -0.033594395442096546 0.19573543355074044 -0.05081616043040443 0.9564659564282929 0.2873857895457295 0.353257875858824
0.0691651896944325 -0.04448681443221082 0.19191084744028325 -0.07717688486996406 0.6826871493925663 0.7266236883669703 0.3390382395114055
0.0697746188397837 -0.05662947215135264 0.1890267396261173 -0.054460107376621554 0.7859331752400669 0.615908386662816 0.18223807838611467
0.06962921525077502 -0.05295258310053414 0.18940055992053142 -0.008063525913923869 0.9966814840747765 0.08099999291565815 0.15802213488025296
0.06899256795468911 -0.05135528771963208 0.1917369590717485 -0.00769547873984225 0.9979670730588411 0.06326531986273501 0.22943126285912355
0.06871004725927557 -0.05436550991008977 0.1933029018051231 0.008204644061243672 0.9985264974087438 -0.05364249983412506 0.27446577755099266
0.06859522536035954 -0.05274133286150025 0.1946028180560059 0.006744410977958896 0.9990730727371829 -0.042514800388143606 0.30715682492858454
0.0687642541596498 -0.04872692889318422 0.19331650645788964 -0.0018239081899726992 0.9998673584764227 0.016184523851356353 0.2744530269956785
0.06913282359936475 -0.044427391966216874 0.19098068313778133 0.011279624505398388 0.9923242787521561 -0.12314745580007154 0.21380455203955123
0.06956501118659672 -0.04234035617071371 0.18939117288014604 -0.007668228606516135 0.9911506235917251 0.13252033664224064 0.16015912824702153
0.06916938480949981 -0.04559515571025213 0.19163533445955022 0.002424218692414931 0.9999881647075811 -0.004218247087983424 0.21782040938869862
0.06841358103801613 -0.04234716363364952 0.19461372367668628 0.03061417486128688 0.986688947984656 -0.15971127769351684 0.33083405538463456
0.06831759304952119 -0.036121388374737384 0.1949211918278466 0.013236684001232409 0.9972867850198688 -0.0724144917912522 0.3249465430504419
0.06794743776514936 -0.03936186075198568 0.19757722526878135 -0.040450564246556006 0.9842196486525204 0.17226559452904286 0.4225073600400725
0.06798728665881949 -0.04770058095558118 0.19899583578649632 -0.017470037694966842 0.9971335248933225 0.07361746611202051 0.45766662849007556
0.06806136722920536 -0.04989327796707602 0.19784146818605758 -0.013134981458524793 0.9980771799961297 0.06057569671954049 0.4195427583704918
0.06794113126113874 -0.05080643669657983 0.1989306448315268 0.008020679219265277 0.9994551073255673 -0.03201807529662926 0.45843981871611267
0.06790621811973604 -0.05382044810548952 0.19975014557287657 0.003968701760576961 0.9998668255224702 -0.015829738657147048 0.4814416124763401
0.0679923680347554 -0.056688107934007935 0.19790879151076532 -0.008586534504560804 0.9990519696996923 0.0426782528270192 0.4274183080847563
0.07009219259175746 -0.06609669266534171 0.19897596565631426 -0.1428540246404295 0.7551851058855865 0.6397563469732886 0.5706385509335364
0.06902554954089084 -0.061108124385483374 0.20306461864574366 -0.06813972693614587 0.9597230360418378 0.2725594828724629 0.577309802078638
0.06826042908877113 -0.05416752081668694 0.20198166550217536 -0.02323630692818686 0.995518290100059 0.0916701048139138 0.5404724174819984
0.06837294011802003 -0.050893230186802155 0.20387591492370233 0.006954471204027295 0.9998334154113165 -0.016875329840159107 0.6035838513979113
0.06847738919133006 -0.04160084066186262 0.20030045524937867 0.06134451486647605 0.9606533898793754 -0.27089096516691236 0.5015000040582721
0.06812095952547298 -0.03307778917932205 0.19887502818763025 0.03991674330460703 0.9820269232775956 -0.1844716118048884 0.43723943406780885
0.0682890735430195 -0.028102753969778713 0.19627251010058155 0.013680239048741662 0.9979948883189204 -0.06179849471366631 0.35513068735980147
0.0682926148920607 -0.023118998936636822 0.19420345765097302 -0.01776930022326723 0.9898706909023484 0.14085548360671987 0.3044910363041622
0.06824629629314523 -0.022679290429620646 0.19440272753372276 -0.051303680795324706 0.9440025581180064 0.32592499536474834 0.33308825064977926
0.06897283783177638 -0.02727700236270043 0.1950408746151973 -0.0315311796716367 0.9762511268841423 0.21433506937959884 0.29125888932109323
0.06805525399983438 -0.023656356413478075 0.19657768517685037 -0.014402847545180047 0.996284762235698 0.08490718767895253 0.36902747715472084
0.06793737807326906 -0.016580990054374845 0.1955082692198627 0.02655580576453449 0.9873962220014375 -0.15602400442715278 0.35021806161698
0.06852654870146341 -0.012737556589754711 0.1921018974473137 -0.04019644551430339 0.8901848247015488 0.45382289898052547 0.27196601949832183
0.06780040963421095 -0.014787379130051114 0.1927041774947179 0.03322779782696882 0.989534186555368 -0.14042082142537338 0.30756601145588214
0.06849883138570485 -0.006912140175346612 0.1915200286227717 0.012657208502411924 0.9983671284494164 -0.055703428122449085 0.22956438301248117
0.06877769743781642 -0.00305277391628342 0.18979321812020367 -0.011549361496535232 0.9832624641369574 0.1818283225142359 0.18608989051676633
0.06973980906688242 -0.0008871917339035893 0.1874612308497767 -0.012367447635468971 0.9484854577658568 0.31657918858585327 0.10060804965611125
0.07082611437156919 0.0015636928403244632 0.18504748254736492 -0.034316420368638516 0.9965752618756352 0.0752338401956995 0.01278777735334468
0.0696363396206525 0.006497979865165299 0.1865270796539362 0.04717641102549542 0.6540179399830414 -0.7550065697880333 0.1403494279927651
0.06821045654216182 0.013479857985501718 0.1901538166658557 0.011006031474237657 0.9857937850058419 -0.1675991668089199 0.2036986224646604
0.06975746519397741 0.016217947147531938 0.1871812821624273 0.013150218489932365 0.7897070576757099 -0.6133431623576154 0.0976783698273576
0.06971640027022516 0.019730002115799703 0.18617790325869601 0.009231482812237598 0.9333861885065141 -0.35875479485348966 0.07668569379772608
0.06909397670295472 0.020245666173683147 0.18904825030230196 0.004409580281045532 0.9949686708079173 -0.10008945854819735 0.13266174867163555
0.06819989605807322 0.022926712150371138 0.19195140750875525 0.002833801116740824 0.999501248757951 -0.03145192049028629 0.23346211207795958
0.06743134400849317 0.02104202117197309 0.19544044582178402 -0.018038390932629694 0.9960705894889809 0.08670638504536973 0.3447301286571963
0.06787447239174249 0.01650602635949298 0.19365954102119054 -0.020750768201536478 0.9897334253019874 0.14141128830132885 0.28582846450633365
0.06949780517137473 0.010965827268648592 0.1882345895464108 -0.0192865909511644 0.9525479150491909 0.30377705137966243 0.10405306478726178
0.07007333632961356 0.005096621956475149 0.18585578340609535 -0.02315190053976551 0.5705948056251124 0.8209053278515355 0.1115077660594507
0.07034886989217386 0.0017846949011455949 0.18679884276963876 -0.01987796153884192 0.5529803454370675 0.8329571442789608 0.08832106942264555
0.06890102086121692 0.0005650969165340364 0.1900074792681991 -0.020891964713081763 0.9582972513442567 0.28500860316220245 0.17879391524851918
0.06785635376762436 -0.0023684809713726183 0.19239473675952787 0.018643117768685897 0.996501854934391 -0.08146463817007353 0.27778927249996593
0.06808601536856249 -0.0015160594082287147 0.1934838623711925 -0.014703322759498517 0.9929122527856615 0.11793672272847187 0.28327334013455646
0.0674456996596774 -0.0068210444107374545 0.19494402415815199 -0.041266877146580574 0.9743229278694119 0.2213410876420052 0.3624123271249724
0.06734847449923569 -0.009128831926246481 0.19489243667758585 0.0343201000049081 0.9822320180546324 -0.18450580869982683 0.36925466832890924
0.06811051991648984 -0.001516411930368962 0.1944884231553741 0.02630770281760264 0.9854988604983512 -0.16763025004130927 0.30477087837798983
0.06819841540695436 0.006623893707203578 0.1921682431667394 0.048358407511696636 0.9135179613219748 -0.4039138506724863 0.27219405907450533
0.06794375958736683 0.015677288401330886 0.19259330841392788 0.032194517508087196 0.9677515462491778 -0.24984086490153432 0.2737422838571739
0.0678853531698255 0.020996471697015844 0.19449488222319938 0.031707700882949386 0.975862072513237 -0.21607368450342845 0.30200770803242233
0.06821854200290069 0.03268054160061268 0.19222048864183194 0.05599194644065404 0.8745845876979699 -0.48162921515929563 0.2776825062484935
0.0685042670895565 0.04586748284735528 0.1885739821012081 0.039152291204244946 0.9368297023116605 -0.3475876967904697 0.12379497360443441
0.07056471060397386 0.04904898740026673 0.18295107114689887 0.07644058609312529 -0.8190612608533537 0.5685907911381031 0.055109506902014764
0.07222175411169086 0.05132886838358402 0.1802040805284668 0.0003437034378076856 -0.9996686899081638 -0.02573698283098252 0.1447969918143794
0.07052056596110978 0.050685077339228196 0.1831922607186393 0.002724037876225685 -0.8866188401593414 0.46249282361151633 0.05653004244756628
0.07205772331140663 0.04697051774916897 0.18177329909099757 0.040081788240337944 -0.8441877242070227 0.5345470386688381 0.15332538872827947
0.0745076601595987 0.045162767915930574 0.17908122751718025 0.012954918750466577 -0.9905570403920174 0.1364878009566276 0.25114691987229704
0.07141078328961184 0.0468472173095106 0.1825297887044372 0.014500423006628285 -0.5843153576199777 0.811397128773615 0.1576739410098906
0.07320052898524487 0.03896882132504943 0.18091040882361817 0.03940857170141155 -0.7543882031143433 0.6552445371602627 0.18544749946171976
0.07301440870787931 0.03691330181397673 0.18052063690899348 0.036071227982444616 -0.7463476483227316 0.6645781025244261 0.15189945910514366
0.07283800950859476 0.033908516896501685 0.1807855209373238 0.04545392682440495 -0.5265836168610037 0.8489073182567254 0.2065021018208529
0.07255723726544823 0.0351212571622807 0.18188705228389673 -0.03181924790617296 -0.4232532160549568 -0.9054525114890462 0.20848855161453161
0.0686153935337806 0.052006603535273296 0.18725847159595965 -0.10530119842550303 0.8671173976208327 0.4868460499515504 0.08510123639956085
0.06789309270652727 0.04863896938316415 0.1893291825615241 -0.07328829526645479 0.7188499514077791 0.6912912361211955 0.2122793457929295
0.06977272221989031 0.04161637696500799 0.18630377503087323 -0.031197747831829967 0.30702126451011763 0.9511911709371729 0.1576965828888026
0.07036549135203472 0.03951634400422997 0.1854174722865973 -0.023961284096486242 0.4339552888091381 0.9006157139307669 0.06804165759573297
0.06898777305923413 0.040569393217394716 0.1884642441179239 -0.05167662164251007 0.7182750036368233 0.6938375500981037 0.17635609296546786
0.06865760571127527 0.03551383418293727 0.18957459354068812 -0.06248008403743816 0.7944774897761346 0.6040709870020962 0.24675528254061194
0.06926961919381897 0.03606329528573982 0.1891265347681148 0.041065532057161604 0.6106632341848026 -0.7908249088716283 0.23719836779459255
0.06796367924573858 0.04995936319886293 0.1893940702138014 0.004650556947588995 0.985822701265361 -0.16772588944448644 0.14889996776120776
0.06833446875087515 0.04759697125183155 0.18920121265390133 -0.01913841123916519 0.9546663153861323 0.2970621946365879 0.13170062076816777
0.06645061798091909 0.04564087975737289 0.19479739919321698 0.000571017485109116 0.9997552142392965 0.022117539202407242 0.3439481692739195
0.06613834395440127 0.050500496197131 0.19695717831073392 -0.009327554689583654 0.9986612908614125 0.05087851077350877 0.3943140207752128
0.06744039167061211 0.04947093494761706 0.1936830981546263 -0.06348372176342022 0.7184157113861573 0.6927111105681691 0.3362155511065716
0.07157124614453748 0.03480474531105543 0.18522925745739455 0.008818110070437245 -0.15955523286104448 0.9871496181437965 0.18128032262352878
0.07446987453261102 0.03531480293659271 0.17897063919191208 -0.12294562326148648 -0.6622768850100537 -0.7391033089509375 0.2991527339807978
0.07380085513316335 0.06862357517165768 0.1834253158666235 0.25687128485703453 0.16110462570447087 -0.9529231042390138 1.3487739378037984
0.09465979606468536 0.08619162526614627 0.19660135112482843 0.19925365102302442 0.16682811372266054 -0.9656429790692489 1.548054845775189
0.11803012459017463 0.07737652328925307 0.20917805277527676 -0.4173899862800035 -0.06565968674266534 0.9063522521018157 3.725014497074673
0.1248782646464509 0.07037027918817276 0.20704955134930972 -0.3158607868870368 -0.07899977220805865 0.9455109725953353 3.7289771397251226
0.12495060276527661 0.07291294466889654 0.20028384108158834 -0.23934724067681054 -0.08209037718227152 0.9674575279331229 3.8519514056190585
0.1270066346892459 0.07162086423354501 0.2056588238211111 -0.35766870354862507 -0.05551745330962084 0.9321968198185723 3.4992027364123817
0.12982823007955208 0.05313659774410776 0.2084006685728433 -0.3501835097780403 0.017004459946854712 0.9365267523255537 3.068864535348532
0.13077814138023583 0.04845582131923578 0.20111714731131447 -0.23888410384977407 -0.00025783873182684915 0.9710480515644313 3.1701148802246144
0.13099599720176067 0.05117228270696624 0.19533269868348863 -0.16077216262750538 -0.007181673479532223 0.9869654174742437 3.2641768442004055
0.13156087319214593 0.054027282668116225 0.1980251968980312 -0.20983743908767266 -0.0009279625468108996 0.9777358477843794 3.168733266501634
0.1314832304700405 0.05046794127963693 0.19990282061066902 -0.24077900648751172 -0.0014588766526032416 0.9705788693938268 3.1580869168278065
0.13210236121838692 0.051827111600564135 0.20285287658149362 -0.2976708658656971 -0.0009019416208801764 0.954668131926524 3.149399684477316
0.13028819548277756 0.05160647647307192 0.20039266893401173 -0.20979135260942552 -0.000490747749571369 0.9777460547284014 3.146452019353311
0.1308274066585167 0.04809369283279513 0.19586839058646538 -0.16961216862216616 -0.005321259065555992 0.9854965228032229 3.2087683840674726
0.13098171085028265 0.04320287123474684 0.19481794947542566 -0.1654915386120111 -0.00015031660309331905 0.9862111985030125 3.144364789569551
0.1291838626865313 0.03531332851834537 0.19143148666420604 -0.09022453207534527 0.004197652962690892 0.9959126033550281 3.0034160522080344
0.13188467215363198 0.019929458929190236 0.19169077033534504 -0.14554936991022746 -0.0024977707743454986 0.9893478367388765 3.1428481467536966
0.12937726262136431 0.019683841321605153 0.1901818287031731 -0.06218897169089225 -0.0012298331928246998 0.9980636349002738 3.1798639919465774
0.12986004977764373 0.016530086521274877 0.1885550712453891 -0.06445905926692481 -0.0017002429965683008 0.9979189039456942 3.19369843806241
0.12892039900183275 0.013979353319144308 0.18786706815730292 -0.024020251414850993 -0.0005200377280147998 0.9997113368781655 3.1584676298118906
0.13089398272674807 0.00604852743721901 0.19127348427568058 -0.09830095505341882 0.011528088713875947 0.9950899584490795 2.9717117333938314
0.13092225737453364 -0.008079212555013366 0.18954256045052134 -0.07558003146349683 0.0029546991793183547 0.9971353612207003 3.106800085561838
0.12995849583286345 -0.010159662875102468 0.1862563971321194 -0.032713496092808235 0.0010069693739816162 0.9994642630860123 3.1191320473083977
0.12822393151129596 -0.012296301255436258 0.18317569086399382 0.02905804013646015 0.0035620567568330304 0.9995713791696363 3.2561284543246845
0.13139197158328153 -0.003975393842187176 0.18922434297656163 -0.08962231927279292 -0.006269596697486687 0.9959560894163036 3.279041654287716
0.13051218126118927 0.0008010379958338406 0.18909485934036038 -0.06949748640075433 -0.003896683918015584 0.9975745161332159 3.248894044520221
0.13143714308491836 -0.0013978273376609705 0.19087731859870066 -0.10464369297821645 0.009192803073442118 0.9944672895030453 3.004189819610715
0.1313623028888103 -0.014233994133497768 0.18910544425433637 -0.07747171386211736 0.0008143924338859071 0.9969942177947823 3.159523677111327
0.1283007684761801 -0.01792144207130351 0.1835602346803413 0.03729684670891864 -0.0069680644060798845 0.9992799364062124 2.98425392027507
0.13045058801178178 -0.037994894031635154 0.18453572717599953 -0.01311168256374145 -0.0004887392647409197 0.9999139187521489 3.0001603140964455
0.13071690346872727 -0.04186949058363322 0.18660380022826356 -0.027359631696439655 0.0004414300833537643 0.9996255577429565 3.0627954366342633
0.1321801733822842 -0.044580821588220035 0.19044280253305246 -0.08680009732792443 -0.00024319460332006127 0.9962257193830362 3.125268320695677
0.13199232409384182 -0.04104030056581416 0.1904078933291302 -0.08470392609693173 -0.0022084705680027886 0.9964037171556094 3.186813274309041
0.1305709327850759 -0.03430229635036379 0.1873832526290071 -0.03470011118267155 -0.0009711426419462754 0.999397297958064 3.2014657758812635
0.12903263654766192 -0.028246238309452887 0.1849260139806751 0.01951733069789908 -0.0009469546649079389 0.999809070312573 3.1310220514593325
0.13156698895002295 -0.03118577955560269 0.18817075878959866 -0.06904991865143927 -0.0036741014462127563 0.9976064402923595 3.2001483392928236
0.13291249872368865 -0.02127052430467145 0.19230209970478193 -0.1426580902886486 -0.010758261751393763 0.9897135591065146 3.266925846443306
0.13222876330011715 -0.018130295815815326 0.19232488549661853 -0.1207133612816334 0.0007351746289366709 0.9926871329509388 3.1079507177621974
0.13252398023100917 -0.02500463474717605 0.19083508848829805 -0.10582595947354775 -0.0007253767189099705 0.9943844025979685 3.150083021270185
0.1293319650665426 -0.019757496666593998 0.18562098419359052 0.00505889220082354 0.003713432983700306 0.9999803088187166 3.2858306220033735
0.12598965890033256 -0.0146333636803459 0.18087979055960604 0.10604263943366511 0.017209932962136725 0.9942126416563916 3.3935340449715414
0.13079393272167733 -0.002712838074096477 0.18933848869276476 -0.07295999864880871 0.004726425410352173 0.9973236683745182 3.2273280035943834
0.13261002954376638 -0.0035159171832243818 0.19560974841814388 -0.18005919193110298 -0.0037964341380749005 0.9836484506615936 3.2142561002714296
0.13230504878663876 -0.0038924459215623182 0.19609846980965528 -0.17645524039504745 0.002737055226296127 0.9843048596170875 3.1206259564289094
0.13260712034455738 -0.013455084616866734 0.19588489963933312 -0.17731648556649315 0.017388126428330906 0.984000262706093 2.952770306593719
0.13387582355705543 -0.028881288287552823 0.19603610084333106 -0.19393736996767075 0.006245294389362802 0.9809940330236536 3.0746572591371195
0.13227051836627285 -0.033271877325580256 0.1925566164860146 -0.12115550319739714 0.007358364143971247 0.9926062656069173 2.999191628903579
0.1331301712701158 -0.03972754926700378 0.1930484943092062 -0.1397897022656555 -7.999912368542978e-07 0.9901812153034613 3.128028434017161
0.13306236636387242 -0.03389183061187117 0.19306221368175774 -0.14606554783012954 -0.008778760960743223 0.9892359622926565 3.253623514209022
0.1336600222281488 -0.025185578568930545 0.1959998453430013 -0.1870326462811617 -0.004848916692533684 0.9823417313908508 3.196522063196645
0.13147970554335747 -0.022522644936458214 0.19154228746231594 -0.08743957177702133 -0.001124404477706186 0.9961691909520298 3.140028676169674
0.12963916502901732 -0.01936490000013475 0.1844492608960026 -0.005293870896358885 0.0006907370956745042 0.9999857488050504 3.2072312984997913
0.13099354828300822 -0.011413487551551188 0.18759182009607717 -0.06446114112949214 -0.0047386051283090655 0.9979089672438672 3.270009378944197
0.13192515208650754 -0.01174871269478007 0.19126719919334315 -0.11209694393716386 0.004783746772845985 0.9936857606541224 3.0890731318391205
0.13155044500900148 -0.018370521250238112 0.19070606344877433 -0.0883347156358472 0.0008817923115141004 0.9960904579684785 3.14029686757688
0.1318014559628822 -0.022628482322049018 0.1910224898743336 -0.09625729774760544 0.00604284441727715 0.9953381418702276 3.026549014779849
0.1325900430400028 -0.034323200857888765 0.19233117631835558 -0.1263140041876838 0.003285031508223992 0.9919848692969383 3.0860632183536905
0.13126008389962837 -0.038885023047643845 0.19065660643377735 -0.0603620194684677 0.001872105643294407 0.9981747952268425 3.0704217937862537
0.133162288863943 -0.049021753772208465 0.19300159644078851 -0.1323364827922081 -0.0028977167910536864 0.9912006146888662 3.1647445782585213
0.1335783262814515 -0.047995592846401 0.19582640588274786 -0.17664640006610882 -0.003743413759507868 0.9842672585213376 3.1778963791641917
0.13353131702255652 -0.04566145158675157 0.1963308213183506 -0.18344021007678205 -0.002721030875396418 0.9830271030434314 3.1694237738457294
0.1338171703654964 -0.04340612081025505 0.19894237037296425 -0.2291296062502739 -0.0065679817268869765 0.9733737643657907 3.1951294551287384
0.1330974052368498 -0.037461858168281084 0.19760756795087997 -0.19177643738616293 -0.010302339429044445 0.9813845626795644 3.2510502036209545
0.1322388222676309 -0.029485989918081604 0.19318861067577425 -0.11818047396793377 -0.008801782159715067 0.9929531228630722 3.307046782529883
0.13218127418991737 -0.01813328333621166 0.19192903290986033 -0.11704554223946156 0.006232653742222631 0.9931069907463143 3.0397889077379285
0.13275691426754269 -0.03006939045692301 0.1951039398263202 -0.15353591186009527 -0.00029241857299475935 0.9881430252046852 3.136020342031017
0.1334399163456841 -0.03404362173858025 0.19827157794769856 -0.2132409633058919 0.0021551726002395277 0.976997260384817 3.121571928328977
0.1324906806768086 -0.03796526755563975 0.1961280422635329 -0.15656779643643673 0.007003624454737601 0.9876423818182042 3.039776349119988
0.1339632510210602 -0.05217253183462144 0.19680489065450468 -0.1941242076988115 -0.0007287906015297997 0.9809766872100313 3.1387291879113146
0.13390568808821213 -0.05023855979803436 0.19845979484788495 -0.21443032704161655 -0.007111117673641328 0.976713400568589 3.2005351523783228
0.13371040959975836 -0.04643944864806481 0.19899148900428873 -0.22352225372842596 -0.006446026316517757 0.9746775111968532 3.196331671492002
0.13414999748624606 -0.041708531066899465 0.19974570601604366 -0.24618215584242858 -0.008176920107393612 0.9691890858456524 3.205078647920431
0.13309180729280717 -0.0334270723856122 0.20072231832790124 -0.24263002125069033 -0.024951913498874892 0.9697979556591332 3.3409313148294584
0.1331605550134782 -0.02198945733871197 0.19942193134427885 -0.2330920603581089 0.00035484237339091906 0.9724546084444775 3.1350850126466208
0.13148984482791026 -0.024476068052571506 0.1951407112667563 -0.10686025810917474 -0.0011793142590110083 0.9942733499670597 3.1892210093525075
0.13196287306201485 -0.023526571273626715 0.1931199015432943 -0.11124055584414963 0.0003266710167572109 0.99379345541291 3.144161776733478
0.13373325915729234 -0.02581966166218394 0.19895948130551983 -0.2292023338186663 -0.013615201682249242 0.9732835745327403 3.2358338515582727
0.13257525172875237 -0.014280996498659004 0.20190124974760604 -0.2659479579956505 -0.02605202652850038 0.9636352917736574 3.3183247685685164
0.1319814357713045 -0.004906556208360858 0.19676021337135163 -0.17583803254443606 -0.011367499639486288 0.9843534762791506 3.2456439944474287
0.13224317104660704 -0.0008471670591885044 0.19535662210160867 -0.16721942977266835 -0.005583855526378678 0.9859038912916228 3.1984042763149043
0.1319763570982431 0.0021488077806358728 0.19329063785354167 -0.14173850898801332 -0.006856210869364815 0.9898803904726922 3.236930500064098
0.13152279878812215 0.008196151752530016 0.19316743186795046 -0.13243724514421598 -0.004641140315310996 0.9911805264003044 3.209931068736287
0.12819596140394035 0.007462187178432533 0.1881910959200785 0.00820177334950413 0.0013793533644329585 0.9999654135509984 3.241885410408386
0.13081162940425242 0.01606399951875647 0.19296991253327342 -0.1204194385496199 -0.005398360489191493 0.9927084247267286 3.2372592587828852
0.13096249302877846 0.01666217834475576 0.1949525703461909 -0.14886941143203505 -0.001735877501928097 0.9888553408204751 3.172409337637377
0.13190873893589453 0.017088738997726737 0.20039642741067504 -0.2493344533457539 -0.024267992276028785 0.9681133171926025 3.3051123278181374
0.1314482436306511 0.024925206905816177 0.20050273097923996 -0.2474155878329226 -0.012614310777763437 0.9688273355252169 3.2330429517364996
0.13162398033666858 0.029692867391913846 0.19801460011398214 -0.2214214126250935 -0.004895729952547717 0.9751659293983459 3.1801046265273234
0.1316059960176758 0.028903547314675468 0.19999573918926258 -0.24784697462656913 -0.00506919318329957 0.9687859311782593 3.1801015942883297
0.13163913908346989 0.026198448827223744 0.2008267350579667 -0.2584223481682071 -0.004449702222971 0.9660217855293723 3.1746356586293953
0.1313235026236705 0.026649317893333 0.1994409521864265 -0.23178631929649376 -0.02323282995095968 0.9724892481665046 3.3429841841811547
0.13100514586278722 0.03627990830498962 0.19908003221679585 -0.2285657999892101 0.012462977836296105 0.9734486885597743 3.035611829937028
0.13138865949222905 0.018250765502331786 0.1981253145196524 -0.1983396332988448 0.00908276274253616 0.9800912678336862 3.0530380398880124
0.1321093745390499 0.010732096522579712 0.19826640817700739 -0.20231593592869337 -0.012427173715540835 0.9792414551185731 3.2602528508070763
0.13201521793007345 0.01947807854324595 0.20169251433328295 -0.2689598594013498 -0.012970914278793952 0.9630640422181581 3.236428898779742
0.1291554225059553 0.02916882850746755 0.21062632951960156 -0.4079211348375736 -0.08728834355510118 0.9088350195894923 3.482757776543567
0.1284217006586583 0.03354944434478683 0.2086756553788574 -0.35450113258358434 0.027271180275365896 0.9346578142418456 2.948116189272452
0.1307018816014716 0.015355682570051928 0.2068839699700235 -0.3398176691370638 0.026915468658039936 0.9401061159726443 2.9768333949627945
0.13241987867966362 0.0068113475533170915 0.20249452175521102 -0.2805550604922213 -0.000823260516299763 0.9598375801531884 3.1604509011903485
0.13226217051914754 0.0052957924234721 0.20710699544044678 -0.37021403841264383 0.03964762791003328 0.9281000115091633 2.970468739505924
0.13212829802605275 -0.005430096741659964 0.20409671584273667 -0.29672022085631833 0.02303111480756352 0.9546866911640167 3.009821734523993
0.13370138680117838 -0.014389837710733402 0.2010792705512473 -0.28253858276451976 0.01703163427277297 0.9591047245652663 3.032170791924749
0.1330758040474824 -0.016953683866455925 0.19900315770098417 -0.2263168976825469 0.0057137323156530775 0.9740369680286128 3.1036384649581725
0.13321727018741997 -0.012851200085525417 0.20033761762012078 -0.2586361244891976 -0.009693988278894082 0.9659261781836418 3.211181657959883
0.132837973127132 -0.01033300466864304 0.20115984326471664 -0.2647497958297777 0.011029488098307838 0.9642540619568996 3.0622509469669987
0.13286673264688817 -0.014651813219874426 0.20183925143170492 -0.2714995734443312 0.011236673064212374 0.9623729624204923 3.062318324593768
0.1326591561928953 -0.02076164162504498 0.20315601925905283 -0.2821432548596977 -0.0066025783849336965 0.9593495659538531 3.184543049936818
0.1321764916598281 -0.01619156367758388 0.20671564288809577 -0.33796724502588243 -0.019852928399309293 0.9409484590154698 3.246102795330612
0.1325614116548364 -0.008026329717682735 0.20159724837420845 -0.2660767210532612 -0.01985197771944646 0.9637474137418848 3.287901550624928
0.1309851996636459 -0.00044598677034121367 0.19507969636843558 -0.1250585815234213 -0.004917077510373525 0.9921371747576574 3.144012136148415
0.13172211741777776 -0.010737142007226067 0.19031608452026977 -0.10203681163941762 -0.002691111626876286 0.9947769835438863 3.167129930490869
0.1328727715440956 -0.007527731740271293 0.20224452048387176 -0.2831332375586625 0.014569726424716748 0.95896991238592 3.0695641795377444
0.13176421300908336 -0.011186194159516277 0.20708528943523377 -0.34853103468922275 -0.016839047644516884 0.937145967463386 3.2245173595130296
0.13186614293725749 -0.005940416021846742 0.20774212094261985 -0.362173347627236 -0.009916559819221507 0.9320580068374676 3.1910307262414848
0.13171823583488482 -0.005551520851222335 0.2088835393368445 -0.38488649514453566 0.03421785719859197 0.922329401084066 2.984163745009859
0.13069436968975265 -0.014064353237411826 0.21356068883997925 -0.45845684496891526 -0.006452207020270759 0.8886932487229301 3.1542553061069953
0.12973636804252991 -0.009889441549826882 0.21182969969650517 -0.40541572946725335 -0.019043845612980698 0.913934033858464 3.2280988883662425
0.12979220481430057 -7.869147244854214e-05 0.2107513264800657 -0.3909574841238782 -0.06421198303966572 0.9181661433758279 3.4454055029831223
0.13049699185979693 0.010976964042447251 0.20810193096550691 -0.3521303768261321 -0.005089109873094267 0.9359371232497329 3.152966805935506
0.1320573156557684 0.002759146684472831 0.20449637119746902 -0.3078874090607367 0.00293535393133225 0.9514182713397742 3.114687682662492
0.1322502189102536 0.002006663874988772 0.19865312521739575 -0.21189919668088453 0.000963495223491194 0.9772910529227974 3.132467366083112
0.13201133097261833 0.005070375725434132 0.20640572623950462 -0.3456340700141076 -0.004353162435521265 0.9383592806714776 3.159794610623204
0.13102151835232037 0.008852193118287395 0.20790987303215913 -0.35782685115153773 -0.015954937449830495 0.9336516398346587 3.2219510755837124
0.1315701933699712 0.01260456144064383 0.2036320148968367 -0.2792713037805767 0.0018810604660900111 0.9602103938701245 3.112030510595647
0.13202386925605727 0.00944309106889068 0.2020191991961268 -0.2618240736302416 -0.004282487826342696 0.965106115805761 3.1693960374074184
0.13186877599465427 0.015832249080705522 0.20418936194453052 -0.31259775091193287 -0.004548505646210239 0.9498747060645356 3.168259716973085
0.13125121420192842 0.008543783204819423 0.20711559897501597 -0.3507206270671579 0.02055454540853827 0.9362545339877762 3.038989622763137
0.13115941265489375 -0.006148800911527319 0.21028684482704557 -0.4016479457282282 0.03769217825929255 0.9150181568637663 2.976757473197562
0.13127131249276425 -0.015291195313665127 0.20626480746140619 -0.31119623629669757 0.0024644125217245143 0.9503424799437794 3.156520299511728
0.13157332849036313 -0.012666084517869828 0.2096450860128029 -0.3955902965095621 0.026535892718878466 0.9180436611104554 3.0388605814136533
0.13144821554083444 -0.02629827372905131 0.2097207963747964 -0.38228608491188937 0.0256139947040581 0.9236889479462447 3.0242666313068303
0.13284288391067495 -0.031866483290551154 0.2029345987880337 -0.2741019320726021 0.004191693385295057 0.961691510069955 3.132908405220322
0.1331783086462058 -0.03898745841330198 0.2062037333040402 -0.3397631905543535 0.03145569674827798 0.9399848474770253 2.9873674449590992
0.1334300089330357 -0.04873443894050649 0.20390027744233813 -0.2925872935027845 0.0019555105015315686 0.9562368177702603 3.145986972537917
0.1335508969373969 -0.044903398651264394 0.20246618620537257 -0.2754418014193922 -0.005529611256869371 0.961301845119517 3.1864463619872114
0.13281916802598862 -0.05060867022684499 0.20342153680384414 -0.2815001870410783 0.051830199383510675 0.9581603598185972 2.797350277570162
0.13408147070083265 -0.05701940117929703 0.20181026303110947 -0.2655004679708284 0.011350582677972693 0.9640439127862079 3.0689951398418374
0.13373773567030597 -0.05323343082121614 0.20250757774082087 -0.27104808073514036 -0.0050986388643157144 0.9625523060133033 3.1795396828415
0.1335622170266845 -0.05216411474841273 0.20357522143004478 -0.2854407133511854 0.0005142093881658991 0.9583962305592981 3.1394278673148603
0.1336768662150459 -0.0557310360997642 0.20442869343367398 -0.2993751973643915 -0.0028078498377377527 0.9541313364429032 3.1594233315875853
0.13277465103739938 -0.053595488350187695 0.2088356759270142 -0.36776873144409583 -0.008459315868240868 0.9298788093870308 3.1823726287312195
0.1321826384551488 -0.05020952939127132 0.21031710839823187 -0.3897522136125565 -0.008514333460560759 0.9208804038037915 3.1812568695318686
0.13291276111264244 -0.046342453116531096 0.2086317382823573 -0.37527710937927844 -0.011694770404218721 0.9268388875749255 3.199496546294633
0.13287547476209122 -0.038978563456885114 0.20415683742955384 -0.2875195865749166 -0.02733604655945981 0.9573845767998813 3.3446298853538945
