0.03349803995681066 0.007155035975657973 0.1487447438065367 -0.00423207398600769 -0.04368975893404499 -0.9990361827852192 0.19137564290254477
0.03246505417685535 0.002164970224506172 0.15081320567527975 -0.004777654580691094 -0.04973780730430145 -0.9987508821228983 0.18861413171406452
0.0317060991159642 -0.0016224425372722022 0.15539443519645244 -0.005364679645436848 -0.053607202928974786 -0.9985476894001777 0.19724796331665692
0.030452484587815673 -0.0077917365852681105 0.15580898199216947 -0.00398256779946512 -0.0419307659444907 -0.9991125812545005 0.1833022604476161
0.0292811774827998 -0.014266663826934478 0.1560468324229721 -0.006090965562737562 -0.06795432197197233 -0.9976698403098307 0.17683236493241195
0.028514056314343818 -0.01915552021040788 0.1522394097771418 -0.004992608592472529 -0.05170423967964375 -0.9986499614272222 0.19190699472485773
0.028024085682032865 -0.03229404613283463 0.14902303959684007 0.004918429598462013 -0.04318764137181191 0.9990548717077681 0.23443215949934182
0.032151394378985544 -0.04196641328690511 0.1416087290589541 0.01063028172149594 -0.031034313780340213 0.9994617894040297 0.5923144581127867
0.044487677192234384 -0.051500066098002104 0.13964848109209926 0.00015898614200716976 -0.002792568402937455 0.9999960881349094 1.1683394664682403
0.05419532388212319 -0.053698230150861406 0.14117862999938494 0.0007817486484898677 -0.001620137761215221 0.9999983820100337 1.3127574968678752
0.0632504229652892 -0.055501778482909526 0.14149251180166195 0.001354327396250671 -0.0018885730880134246 0.9999972995408513 1.3443636497992726
0.06829906133417217 -0.05654400861813286 0.13847733908412674 0.0017406124416196127 -0.0022029793105233617 0.9999960585674753 1.364109057459087
0.07397176884334268 -0.05785696435997909 0.1408218213590889 -0.0002803609553140842 0.0003125489857150322 0.9999999118554291 1.3694509746947072
0.07938112487242077 -0.05884537935710795 0.1420498581628584 0.0036352723464704983 -0.004616104715292634 0.9999827380371243 1.3469638490815419
0.08482449994192932 -0.06006945617274312 0.14216804528289403 0.0029676264953025413 -0.003758904768024939 0.9999885318482054 1.3452917946863652
0.09518248607909591 -0.06222826870376128 0.13410883837240964 0.003923182878313756 -0.004886795226764565 0.9999803637414663 1.357054739411642
0.09548108368085237 -0.06234671925256069 0.1384388398936629 0.0032406123298298465 -0.004031035640186237 0.9999866245022456 1.3572037846893061
0.10271412409205187 -0.06373985627280862 0.13824539089529383 0.005629584456617148 -0.0068478528605022656 0.9999607065730366 1.3752679037451225
0.10906500527076086 -0.06495612715762235 0.1349479174163528 0.006141970087241152 -0.0074298413608007464 0.999953535750937 1.3822235739898063
0.1178673873443212 -0.0670108214605184 0.13649550600715196 0.0007387760705474927 -0.0009311716330471751 0.9999992935644041 1.3912176510743917
0.12290906170784686 -0.06802504828170004 0.1344201408343383 -0.00020859443665942717 0.00024747283786583026 0.9999999476227766 1.3674046928740682
0.12581874914389213 -0.0684362891948282 0.139043527349877 0.005952727755488991 -0.006485084106608864 0.9999612536075582 1.4504328877207036
0.12055992280534299 -0.06738095667368504 0.1436881403860566 0.006512153931305503 -0.007828424014754651 0.999948152470227 1.3807117346724678
0.11204256689294367 -0.0657448877134323 0.14119706257104628 0.0024142333234627436 -0.0029004373576947385 0.9999928794449459 1.355704290745882
0.10651558385683783 -0.06459460962322741 0.14314582108991977 0.0014009524530721044 -0.0016894538215073 0.9999975915361043 1.3726863109062373
0.10022552038319012 -0.06332650553651786 0.14369452384160153 0.0016073690200059637 -0.001965162670086617 0.9999967772450639 1.3645185143023981
0.0924545816406923 -0.061706235165105656 0.1430438205286897 0.0023332469784210167 -0.0027964428193374374 0.9999933679110556 1.3843837957653051
0.0916637743413553 -0.06160889522043639 0.14863312088125316 0.002115060576267005 -0.0025376924742159987 0.9999945433029448 1.3824320119549967
0.08583897105289212 -0.06037294995059654 0.14850543880640454 0.0021720047836366425 -0.002657394724095152 0.9999941103069059 1.3637953208021258
0.07848532135882161 -0.05869372140021992 0.14818983902139596 0.003292424153941812 -0.004018791365154814 0.9999865045385132 1.3655979596527477
0.07098831287522445 -0.05708683478704354 0.14488331897017867 0.003998736116046208 -0.004871397860710652 0.9999801395989607 1.3691655333321264
0.06559274951944301 -0.05596143726784412 0.14739374815082942 0.004613543366038713 -0.005679592005822182 0.9999732283677684 1.3606719068660225
0.06037903650019397 -0.0548735864381439 0.14522318664528724 0.0027723445747520276 -0.003353779305229725 0.999990533090154 1.3847893238446067
0.055029135818638775 -0.053772905619960835 0.14679346549019673 0.004984836518434664 -0.006069745259172952 0.9999691543229586 1.3754750067878079
0.04988467199627236 -0.052872970072304716 0.14523522023415553 -0.0006977942906690138 0.0007807275768089584 0.999999451773639 1.3971575036919666
0.049122347318746 -0.05265641538056134 0.1509417701398615 0.0021107837855079627 -0.002604949253319849 0.9999943793998038 1.3764105888012108
0.055103839340213 -0.0539325411325604 0.15258107056225775 0.0018285396204293623 -0.0022605511723679935 0.9999957731666937 1.3793614737777042
0.060906690087274645 -0.05491549360053255 0.15542640719815687 0.006528196539312629 -0.008143566202243943 0.9999455310062912 1.3598432147263977
0.07005313096198529 -0.05694562721931548 0.1506974194216932 0.0022678650482707264 -0.002850486318351651 0.9999933657359291 1.3463478671820819
0.06673915559831636 -0.05628495959132645 0.15369207043143537 0.002805604222490677 -0.0034558215997381324 0.9999900928919333 1.3623448506287286
0.07234630918656686 -0.057507171606744345 0.1555182659746635 0.0021645683159912687 -0.0026929380749072356 0.9999940313464526 1.3579402280979909
0.07743213159829934 -0.05848790846523977 0.15388358080541778 0.003912341158119502 -0.0048996102974107935 0.9999803435096092 1.352165313842149
0.08462562641273015 -0.06011426219317948 0.1543406766101855 0.0031762710520907844 -0.003999141654154539 0.9999869589990831 1.3499276674165932
0.09593195910358683 -0.06260695762255669 0.15062901823015556 0.0007966386286555447 -0.0010413023675215967 0.999999140527768 1.3772812339221934
0.10255301971070936 -0.06402170524093094 0.15082294678069458 -0.0012111469335873474 0.0014302479530871898 0.9999982437554067 1.37834330056841
0.10885004143190138 -0.06510506003090932 0.14986891207098718 0.0034422557177376657 -0.004106852375008377 0.9999856422164988 1.3930684209675268
0.11386191773740116 -0.06606467730660306 0.14653508976984128 0.004684403905344346 -0.005680947260927832 0.9999728912316923 1.38129480521464
0.12027075849439461 -0.0674383627625338 0.1499877169648185 0.005423867381581125 -0.006566600018611111 0.9999637300556569 1.3843286717919734
0.1295231853685358 -0.06895973467938765 0.14803585827704227 -0.003734194203753621 0.002794642865167276 0.9999891228232961 1.6221299250497325
0.14072256542728107 -0.06605151584545127 0.155681944228702 -0.010002678492038283 0.004939962017130861 0.9999377696628197 2.0744160354634187
0.15079574521726896 -0.05587089858957814 0.15215849130514245 -0.006229425217407667 0.001870673936830932 0.9999788471965209 2.5978666254538862
0.15351856349778326 -0.0487925779183883 0.1465733704153092 -0.0010084200280374323 0.00042129324062504 0.9999994028003478 2.809256447193185
0.15519634784521164 -0.041202537763985324 0.1448392648243064 -0.0016395563293074063 0.00026561529049609915 0.999998620650829 2.8926995910894564
0.15636030260957104 -0.035203627349918186 0.1427627360966168 0.00045515355049312767 -1.091633018735226e-05 0.9999998963580343 2.9386617589277617
0.1575176451257633 -0.030000485833409807 0.14347202752864058 -0.0023384328117489563 0.0002673002285976954 0.9999972301374503 2.9268039347497137
0.15901190319614808 -0.022998546395286104 0.14391650615924345 -0.0020446356293680806 0.00021328876790784575 0.9999978869842898 2.9322996637929126
0.16079603236227544 -0.014973878646420432 0.14053338679124724 -0.00618540934668413 0.0006549939834298984 0.999980655659946 2.9296327470444923
0.16176188358413282 -0.008479334383730849 0.1419544353372497 0.0037873245778395335 -0.0002806916974632145 0.9999927886663548 2.9636972893382723
0.16308944900678093 -0.0026498730044425337 0.1438157221807938 0.003972435611522052 -0.00041177816835900985 0.9999920250652264 2.928975141246378
0.1644802124459161 0.003169684107554953 0.1450565337636359 0.0014232478846481083 -0.00015334087526615883 0.9999989754254925 2.922546676291998
0.1656629162558464 0.008390396494422322 0.1422120537605018 -7.501914141270598e-05 -7.374224123719421e-08 0.9999999971860614 2.9338389580876703
0.16695791822652095 0.014483825169180871 0.14243269101519104 0.0009396679233124411 -0.00010729699064271529 0.9999995527556749 2.9299748690533245
0.16800751017531423 0.019518139798316094 0.1460300777014216 -0.00014471650349122484 9.149835534023777e-06 0.999999989486707 2.930431362580312
0.16910199369024143 0.024711656766957125 0.14750983827248867 0.0020571600874589773 -0.00022103501236672124 0.9999978596156582 2.9317097644659103
0.1677157734753006 0.017786176138284066 0.15099739193705364 -0.0022223646104483773 0.0002220777924599329 0.9999975058853859 2.9392024769420897
0.16611345656223328 0.010301356665809135 0.14951309790446077 -0.0013278184702476311 0.00014676280056855583 0.9999991076789972 2.9270024325399775
0.16498783988200902 0.005044208878432489 0.15157118269010253 -0.0015815076777595208 0.00017653363889560036 0.9999987338338682 2.9283375738463735
0.1635653950118904 -0.0007549184539963265 0.15055226966410085 0.0031658593953705926 -0.0003424113114224383 0.9999949300315389 2.9244066803769364
0.16207306089036494 -0.007361405268205707 0.14913676789729924 0.0026548545673478014 -0.0002760154099060273 0.9999964377750151 2.9318360850273737
0.16037788357646823 -0.016048502734818674 0.14509627292372468 -0.0010414864165862268 0.00010753439181764718 0.9999994518710491 2.9378003339382586
0.1596154611204767 -0.019940786665817254 0.14875204526837824 -0.0013748515126878397 0.00015051609729712742 0.9999990435636539 2.928898432760193
0.1583862156949311 -0.025810286891594824 0.14907016016247096 -0.0010897901699472295 0.00012669964943656263 0.999999398152111 2.9229591340505783
0.15706755738818415 -0.03207899981040048 0.14963713792458902 -0.0036525241724017863 0.00035772769393068636 0.9999932655263569 2.9435823087339195
0.15593550532197517 -0.0375937888759561 0.1498923746216315 -0.002269252271477718 0.0002352875183713679 0.9999973975635696 2.9372102564605753
0.15715419639776732 -0.0314299057130358 0.1558331327379187 -0.005200610427861217 0.0005301197163259349 0.9999863362187824 2.938038582897311
0.1585945226058575 -0.02546698805332903 0.15588046928836216 -0.00736944273083941 0.0008236970434524433 0.9999725060405499 2.9200531794639795
0.16054461266017747 -0.015161379231962566 0.15046744133861362 0.001155327494776316 -0.00010901892522035011 0.9999993266664001 2.9320630062907123
0.16132379499951324 -0.011686120306777415 0.15437191343312576 -0.0019243084397022629 0.0001955688119861351 0.9999981293931848 2.936999321382731
0.16035163014014386 -0.01648633509187125 0.15637247250170483 -0.003482601122284241 0.00036077806008232287 0.9999938706455227 2.9364072583654743
0.16260041783982498 -0.0057486132009390905 0.15615547490509474 -0.003201782928590038 0.0003542158290562161 0.9999948115451524 2.9168079305557577
0.1641903657797265 0.0012232516150303813 0.1568336817155644 -0.003237081054867374 0.00034563782534813287 0.9999947009063288 2.9238677224628544
0.16610011478763986 0.010158748204914143 0.1556502485280032 -0.002999660063393435 0.00033779260135276723 0.9999954439574525 2.912472539953624
0.16797061263832802 0.019309258339842327 0.15603946691078494 -0.0010737357072161295 0.00011918047575512259 0.9999994164436523 2.9019895106742464
0.16965190352660006 0.026417725703297982 0.1537724552525906 -0.003205819161412326 0.00022055817385404673 0.9999948370254701 2.977483146583803
0.16944435851429915 0.026640164323853553 0.15900428339914452 0.002256558846411833 -0.00022375846539696246 0.9999974289338557 2.9638297920097187
0.16855129424430512 0.02168356436181263 0.16260030593407462 -0.0024852595292434877 0.000287033324769826 0.9999968705435747 2.9305613768939427
0.167266915725004 0.015358304679143482 0.1607170397378007 -0.005367231331985239 0.000572023596201699 0.9999854327023142 2.932615005553977
0.16571116933101646 0.00867062302658208 0.16174934868773097 -0.003063138461243397 0.000330573179953179 0.9999952539408073 2.929619834550854
0.1636541413027019 -0.0007002471043809732 0.16110309515248025 -0.0011103536158549308 0.00012608961889336529 0.999999375607933 2.926366438723911
0.1619669260071889 -0.009631046109088081 0.1609024415629203 -0.009257060272021594 0.0009273677187596012 0.9999567224756452 2.939090939711509
0.16227495894470031 -0.007676069662200574 0.1651596646495289 -0.006583217290033043 0.0006958488836269215 0.9999780882821601 2.92774253474058
0.16065193386635018 -0.01468902134244461 0.164535958367093 -0.0027496944095260476 0.0002905843836767892 0.9999961773633789 2.93890656165236
0.15956144252652577 -0.01986737006378987 0.16158262383286648 -0.0030044319994622457 0.00030794943973756 0.9999954392673513 2.941602656408522
0.1573998711519452 -0.028903956719846052 0.16148513797428826 0.002370845763189589 -0.0002817624634667496 0.999997149846079 2.918197111816238
0.15643584612728886 -0.03459666193331201 0.16052101695427543 -0.002090774276965735 0.0001880938412713041 0.9999977966393874 2.942404879806652
0.1553904203400563 -0.039825966699475704 0.15779009237020067 -0.002024698865872316 0.00019549441869972162 0.9999979311860774 2.940220742485775
0.154283255453396 -0.04550667720167384 0.1565873998585442 -0.002457807570052476 0.000278444558088457 0.9999969408206091 2.9196469444167104
0.15239151544705062 -0.0518501728425089 0.1609441365714462 -0.0027361916879009617 0.0005174566572360107 0.9999961227393108 2.777113927376069
0.15388984045553172 -0.046854788510961684 0.16581081494111546 -0.00505590386034296 0.0006214080190647227 0.999987025759949 2.8806524915270835
0.15523395302095178 -0.04068238353040384 0.16397089890200114 -0.0039319129993665184 0.0004301556538470034 0.9999921774825434 2.919328364683436
0.15666631572580128 -0.03365106022708494 0.16576418881160607 -0.004151635428660271 0.0004277690964978511 0.9999912904305055 2.9331832582152453
0.15817501185866292 -0.02580712185289734 0.16482690245224596 0.002913509361165959 -0.0003120879973808754 0.9999957070229273 2.9335593365572614
0.15922594725505929 -0.020958531106025684 0.16779931334405404 3.7423852198336445e-05 -1.148409818284297e-05 0.9999999992337854 2.9398944468853268
0.15819856155595957 -0.026790201741722048 0.170070542070914 -0.006103671763086828 0.0007049722025728437 0.9999811239244479 2.9209030388759274
0.15618451925852272 -0.03587410196052159 0.1700140265967029 -0.004201146050812024 0.0004626401699367876 0.9999910681280774 2.9293550138504765
0.15689267237582064 -0.032437725475647335 0.17299504084198922 -0.004535759107340128 0.0004721514269134415 0.9999896019271152 2.9350280093559173
0.15573932922014583 -0.037739913262157324 0.17564869783252876 -0.0035456966002670723 0.00038492277681711785 0.999993639914812 2.9274855011380096
0.1539381872076695 -0.046761657910769125 0.1719260154413059 -0.005803790321925701 0.0007213167636888406 0.9999828977137687 2.901270186994102
0.1496692424830001 -0.057503564274622915 0.16838013661113296 -0.004976732390071646 0.0015142188426683352 0.9999864695464705 2.54327358287542
0.13578063376022043 -0.06800031768988278 0.16271269067121408 -0.004579509376989619 0.003787009664358031 0.9999823431699522 1.7458519152968734
0.1234867442633791 -0.06822705062924829 0.15701734378481694 0.0009571944291960493 -0.00164381239925744 0.9999981908281738 1.4819669314617143
0.11546815376558849 -0.06663467709147111 0.1538516293501676 0.0007079809915096791 -0.0010110468308916114 0.9999992382733205 1.381117143443752
0.10956643494128104 -0.06532903162061425 0.15552236129863212 0.0012111163875207875 -0.001488266789774146 0.9999981591278347 1.3893572480813168
0.11189037629648933 -0.06587223120461293 0.16088230623629476 0.0015558667757178551 -0.0019188124983013997 0.9999969487139311 1.3701192796603654
0.10553465020683123 -0.06451674012776375 0.1618816177848681 0.0016793889520142343 -0.0020635126973002358 0.999996460777785 1.3645488488416193
0.09930268743755563 -0.06318463359378439 0.15813678024879285 0.00259046008579032 -0.003094889476110114 0.9999918555546713 1.3889228905849689
0.09368119158255106 -0.06212759083062667 0.15522141033500014 0.00022257901892966855 -0.00023339903021160825 0.9999999479917352 1.3635782814119866
0.08818633120911039 -0.06105235253586956 0.16045568116841744 0.00013221241988988652 -0.00013762144330225693 0.9999999817901071 1.3549393310599889
0.08278260135804832 -0.05974745552066165 0.15907047535072666 0.003332887589605447 -0.004109041315666707 0.9999860037219427 1.35793088572819
0.07775569963738378 -0.05868742834313289 0.16092701597583065 3.915058617313476e-06 5.2284029052008e-06 0.9999999999786681 1.3595584013299735
0.07206652084295598 -0.05752191354598349 0.16141753450324553 -0.0011679712409384117 0.001477338226666266 0.9999982266558998 1.3489679284105347
0.06547022689341087 -0.056119275930524765 0.16300267838051086 0.00028993087365624027 -0.0003364245703170209 0.9999999013792936 1.3636125022688104
0.05985731169323498 -0.05484080342724218 0.1620120590205787 0.002890323798775942 -0.003496420314845842 0.999989710483723 1.3737192196057997
0.05520080021885048 -0.05385714624485061 0.15911707960162055 0.0035866646676947474 -0.004352124905988606 0.999984097296234 1.373958856592692
0.05006768603785412 -0.052774377327178205 0.16081909285068327 0.0036207561937671826 -0.004453049811833371 0.9999835301003507 1.363004677378663
0.036097541951158045 -0.04685087835853368 0.15605945362379264 0.003062239797555717 -0.007206062607113869 0.9999693472047655 0.724819461786692
0.0312115411612081 -0.040954136853962944 0.16033579434127262 0.004583359844631393 -0.016659403709962717 0.9998507173976339 0.5498785116734674
0.029897168548604556 -0.03864301856835483 0.16602840653585602 0.0012934517920852886 -0.004375488543848106 0.9999895909870585 0.4418852540694986
0.027296020660916024 -0.026756357164565987 0.1633916304876678 -0.0019069325186379092 -0.23265655690617998 -0.972557088369074 0.012742473504657015
0.028010458830586955 -0.020665129013022556 0.1582027998447655 -0.001129725900999198 -0.016172155610591633 -0.9998685839160543 0.15567243551378468
0.02977180697765524 -0.011116735301069875 0.16125346901638818 -0.002151996043633156 -0.024345668656567444 -0.999701284049737 0.17911812197671897
0.03111501065690601 -0.0042000058831297956 0.1625647223702613 -0.004693719707842558 -0.046107521693746996 -0.9989254553962297 0.2011067845592206
0.03239817908649294 0.002029674329814571 0.15883442933076242 -0.0045616785818579616 -0.048339771694010894 -0.9988205332095886 0.1889253061562425
0.03372157876289835 0.00859579452917785 0.15617128911839212 -0.004734890177577193 -0.04865706736930209 -0.9988043204802557 0.1957841783718905
0.03510183372888041 0.01576400582603904 0.1565159684049508 -0.0038565895353534713 -0.03959852078014132 -0.999208228483523 0.19731344058107683
0.03712644392322503 0.026044475364545797 0.1559211130072028 -0.003276343506481531 -0.031839885828506956 -0.9994876123512764 0.21297968789331476
0.03839261338748897 0.031612042344133034 0.1537146518350962 -0.0025135979656804625 -0.02282599700972875 -0.9997362930722176 0.22788394134887113
0.04077634498397947 0.04098852494404558 0.15119540721351568 -0.006596082608002517 -0.055766981998212874 -0.9984220227003406 0.23657814305171596
0.042018817681264434 0.04634007230154049 0.14911951491744058 -0.004244175243809363 -0.036243552052495076 -0.9993339741603495 0.23665474804112308
0.04385443110314723 0.0537050667381395 0.15269325235856804 -0.001711967084074463 -0.013233640140647629 -0.9999109660051394 0.28334559267936354
0.04211868830533321 0.04730760281710113 0.15477810307455234 -0.000950605901557206 -0.006962260014849223 -0.9999753113371879 0.25656723198711884
0.0401569526769972 0.038837015816733815 0.1548371612619763 -0.0034506525900233247 -0.02884136441066043 -0.9995780453249434 0.23908041993212503
0.038724564269169696 0.033518155065537666 0.15888516886658585 -0.0003131506592661385 -0.0019103248272021763 -0.9999981262961041 0.22800972158788077
0.03986530016893826 0.03853217608515367 0.16162889472676156 0.0033716215141291607 0.027801821921321516 -0.9996077685103396 0.23765763378233196
0.04172196274878627 0.045823566701122594 0.16192018635770047 0.0007978441416573465 0.0062507814039570635 -0.9999801453911801 0.23529612810360886
0.04324928673736313 0.05262481811915637 0.16014086705550845 0.008278838367467447 0.0564393805483836 -0.9983717029035829 0.2776402842320142
0.04736688767455376 0.06258356605987125 0.15956612527926123 -0.0029152445548611345 -0.004301851898638916 -0.9999864976185565 0.5704093202239829
0.05639127036501785 0.07128866529411214 0.16407089544653686 -0.00043977117437152724 -0.0007207677562401043 -0.9999996435475144 1.1088399492972065
0.07144085321095235 0.0737889157332542 0.16060559062447954 -0.0013818565150692796 -0.0012506288335222661 -0.9999982631985381 1.5878738344339483
0.07695691794427954 0.07244156920533365 0.1552601846770152 -0.0016287494452802108 -0.0013557293449187918 -0.9999977545840728 1.7260762728144692
0.08166679937324323 0.07138626044262353 0.15841691953741233 -0.0009667299942528141 -0.0007841940491105565 -0.9999992252361057 1.78830321332195
0.08948336546069632 0.06964399355733912 0.15429398129258853 0.0019139619022619024 0.0014814823992139023 -0.999997070975579 1.8078247405403371
0.09666846812659599 0.0679331484268879 0.1554522505676624 -0.001175684143607871 -0.000966907159662385 -0.9999988414279983 1.7914469510969664
0.10215208701981203 0.06667257407883678 0.15408841020218936 -0.0011905424307977288 -0.0009694612076458517 -0.999998821376149 1.7881449480505234
0.11086708377951773 0.06457055058757197 0.15447598196827797 -0.003936066795968568 -0.003049573947354535 -0.9999876036616241 1.819076794446623
0.11807249968454114 0.06310492314050195 0.1522885180093559 0.0015655262121562785 0.0012051722836088656 -0.9999980483418185 1.8226806236666033
0.12612841518157195 0.06108628354902457 0.15302645573207463 -0.0013664008783428382 -0.0011234049026642766 -0.9999984354538083 1.7920990104912529
0.12276939705049122 0.06196753198624245 0.15573431555247486 -0.0012567358162425208 -0.0010320323420468307 -0.9999986777612924 1.793740898619553
0.1315303616968826 0.059882943165692384 0.15512997814973914 -0.00026610565589178954 -0.00022743403615664538 -0.9999999387307675 1.7982302757503976
0.13955512664990966 0.05791129000467886 0.15541364040741573 -0.0021801380303493067 -0.001774730442355308 -0.9999960486572063 1.7842158958916756
0.14609032018078189 0.0565635279752747 0.15489269458367924 -0.0009258077644829483 -0.0007573528035544107 -0.9999992846481011 1.7789785018885769
0.14706909246307784 0.056452113301940714 0.16042845500576022 0.003040382916833193 0.0024369404097612847 -0.9999924086677651 1.785913831235039
0.14175329722014776 0.05754685709012036 0.16113843301469347 0.0007489308458470061 0.0006037290500133241 -0.9999995373068041 1.785061041109301
0.13588590571640663 0.058825758563039954 0.1616096695524944 0.0003007254821213439 0.0002466769470254912 -0.9999999243573312 1.7821418201745072
0.1289898040465355 0.06055949798100371 0.15901948342961983 0.0016419126012796738 0.001294585579359973 -0.9999978140832045 1.8039660649075568
0.11732701998658983 0.06326573093032564 0.15741906638546296 0.0008186005475917218 0.0006682420369344106 -0.999999441672706 1.7921891345306218
0.10821076231989506 0.06530418672128388 0.15851626767514204 8.191177195250071e-05 7.485476215658896e-05 -0.9999999938436132 1.7869988464535442
0.10236319506815637 0.06662029084095822 0.15981199512560165 3.610821574749825e-05 4.605273378479492e-05 -0.9999999982876713 1.7868861965778835
0.09563439025973094 0.06816528680132977 0.1633369557481326 -0.0012337251664087036 -0.0009926114219610033 -0.9999987463216036 1.779029194056975
0.09007789462378879 0.06944287837561337 0.16413715379564117 0.0005981700188553981 0.0004676953754653463 -0.9999997117267907 1.8011131368660989
0.09955700756475573 0.0673078388511203 0.16538388240485805 0.0013284835861077924 0.0010483208010020335 -0.9999985680764046 1.7982268155695824
0.10800447827663487 0.06531333176037386 0.16451448334022942 -0.001029049478628559 -0.0008349511580454332 -0.9999991219564814 1.7929045981097549
0.11665738939570255 0.06333372764924858 0.16309294216843523 0.00043555757404643717 0.00032960867325662705 -0.9999998508238499 1.8056777523240917
0.12409027377663519 0.061646178780745145 0.16368973678690574 -0.0001029984181046548 -8.91797348612852e-05 -0.9999999907191502 1.8139002142083496
0.128605867835128 0.06051570882783184 0.16814594065549576 -0.00014695001480961693 -0.00012109714143143453 -0.9999999818705877 1.8160107008509951
0.13420701834016235 0.05934087301914001 0.16726240475920737 0.003175474740566337 0.002507349160857593 -0.9999918147466795 1.806348105857372
0.14139449593942405 0.05770914517819341 0.16671026016688842 0.0014999364949406526 0.0011958751223412045 -0.9999981600349087 1.7811036569000727
0.147628846164757 0.056264330053861784 0.16621530545099072 0.00037795749894051455 0.0002936755095931669 -0.9999998854514054 1.783054010955691
0.1481700181811294 0.05623001597081585 0.1715332424845893 0.0032181761515527978 0.0025838487909452244 -0.9999914834975762 1.7859531598010474
0.14196472311881506 0.05763945720527095 0.17364014571324093 0.00546445910647459 0.004380066677677478 -0.9999754770505987 1.7901634516307179
0.13603686748427002 0.058937398259191184 0.17482956132392 0.006257838488077717 0.005074639392741939 -0.9999675432195241 1.7801693317088791
0.12986782868863914 0.06038063853260476 0.1743979517798432 0.006073890176004602 0.004845877677889566 -0.9999698122081789 1.7960189020520052
0.12312512804111285 0.06197299532889835 0.1704388875980627 0.003807513377237993 0.0030341106917938093 -0.9999881484368662 1.799175530474794
0.1150376771976972 0.06392485715852093 0.1688249922590548 0.0059994331142397056 0.00490778661317068 -0.9999699597652258 1.7753429016081759
0.10652083489917562 0.06566682904702409 0.16861140587710585 0.0015384071125457192 0.0012593590450396262 -0.9999980236572228 1.8071951133260986
0.10137977730131911 0.0669078862460233 0.17166501787333813 0.0018043294600427248 0.0014719171167931406 -0.9999972889239255 1.7852137258064238
0.09428348247485246 0.06852019097674367 0.16949466091413132 0.001187082097389022 0.0009722914403366861 -0.9999988227420318 1.777624091244536
0.08469403110578348 0.07068083115605826 0.16791114763773102 0.00019677524251758745 0.00017104804581582326 -0.9999999660110345 1.7987057584345276
0.0777997699218403 0.0722910274482851 0.16930547362654358 0.0013862161758517546 0.0011232431148343487 -0.9999984083635428 1.7902257199077545
0.08780126451496673 0.06999651537078926 0.1709811097483701 0.0006954048453477637 0.0005488868566166943 -0.999999607567583 1.799627292735991
0.08384399989530515 0.07087626356183346 0.17363133330483538 0.0010355037663393773 0.0008177442930557689 -0.9999991295127316 1.8059088237130452
0.0789029526290269 0.0720699686886249 0.1763178976270016 0.0016605396326492303 0.001321645972250306 -0.9999977479274904 1.8013075044773759
0.07440797971823354 0.07322262862963293 0.17564885497830487 0.006292768183292202 0.004733849150050737 -0.999968995389765 1.8421599683747372
0.08420550074752431 0.0708489986418383 0.17964626815983753 0.002739057078876691 0.0021075834277207816 -0.9999940278113734 1.8003497734670328
0.09070732857236366 0.06934015623770902 0.18014215428013036 0.003580267681401583 0.002796703839182631 -0.9999896800122317 1.8055850236403224
0.09679303010494747 0.06797724976902134 0.1767102934774335 0.001521536764423142 0.0011815833375200088 -0.9999981443916239 1.8067870335624971
0.10223629556346328 0.06668746889275867 0.1774743659889963 0.0009542585790918005 0.0007519511626384381 -0.9999992619797344 1.7936838767393402
0.11097050374111736 0.06476490091867144 0.17483372216451354 0.004623323176159357 0.003550424776337464 -0.9999830095390203 1.821182574092305
0.11679246516539579 0.0633794641185323 0.17465623408198122 0.004462185928692913 0.003442552487362366 -0.9999841187384475 1.8187830722745724
0.12351117972191283 0.06191126245024122 0.17696655613662618 0.006619464463469516 0.005107463939568729 -0.9999650476403277 1.8235987411537156
0.1281488760795538 0.06075868903101185 0.17987670817884596 0.006905634813792224 0.005364419789269291 -0.9999617668731856 1.8190793443161692
0.13368170990921244 0.05949069198312998 0.18067026209282835 0.006751657447633164 0.005272668517993862 -0.9999633063709933 1.8140879169727446
0.14363627591414296 0.05727349817734854 0.18175298331600198 0.006712018497490264 0.005324592802616529 -0.9999632980860728 1.7982482326787093
0.14916703012770285 0.05600416513850784 0.1780291319533149 0.003948671824872328 0.003126666964377175 -0.9999873158918133 1.7972839300689591
0.1631999905232312 0.04919008260332707 0.1731399938162636 -0.008459581992574804 -0.0021462093136476014 0.9999619139037711 3.7822174729096183
0.168679319638622 0.040585679233758463 0.1663444126650372 -0.01132735442156585 -0.0017937425144154886 0.9999342346022564 3.5157597679246613
0.16998436137322182 0.027893065837479088 0.1690508846126552 -0.009172600089829935 -1.2018265744546347e-06 0.9999579308181656 3.134463881073092
0.1676935443121983 0.018070047161527377 0.16881863346926915 -0.001024759028574687 -0.00014226787096490858 0.99999946481425 2.988991415227305
0.16643748153183158 0.01234926622086603 0.16646849986309184 -0.0005041766834793073 -1.4216011081763492e-05 0.9999998728018804 2.944234369791774
0.1652149984472365 0.006726651907690304 0.16933865706568324 -0.0004691225540548492 -1.8095545422454087e-05 0.9999998897982842 2.945674317813625
0.16380769591734803 6.611222138493871e-05 0.1668793496163874 -0.0006516479011615268 6.106265598209387e-05 0.9999997858131595 2.9193468375944738
0.1635024296506373 -0.0014976106981243868 0.17210029066323687 -0.0025691429968368305 0.0002967634921999462 0.9999966557122536 2.9120695166280193
0.162144388651033 -0.008434567981885467 0.17270062505354222 -0.010909924250461063 0.0010346500047935358 0.9999399497230905 2.9444733700202903
0.16074529298321116 -0.013960363977223698 0.17271302138793695 -0.0016367619825887775 0.00015374834956824105 0.9999986486849156 2.9430304146156647
0.15934763597405685 -0.02072061702488811 0.17411113696258818 -0.004177064172911248 0.0004292920213157348 0.9999911838827661 2.9378521901212573
0.15807797100043497 -0.026392999321657503 0.17773057109759377 -0.0010451492563900012 0.00011035832122800392 0.9999994477418839 2.9238239417463956
0.1569386632134501 -0.0321455356348987 0.17995163590151864 -0.004095272227097691 0.000431080209856312 0.9999915214216761 2.9312683055991853
0.1545675937275176 -0.04260982360553811 0.1764012488823602 0.0007585671741533116 -7.122371281671659e-05 0.9999997097514705 2.9350956354339837
0.15364038474297953 -0.04729160279227184 0.17993181123252355 -0.0021546672837561183 0.0002660908990680768 0.9999976432994877 2.9109964925126914
0.1548107543899154 -0.042011226494787196 0.1814707820195101 -0.00314703226314292 0.0003110326456403593 0.9999949997108127 2.9415842827431993
0.1538028204745324 -0.04695294574300272 0.18570490174309137 -0.005421974630789692 0.0005889716207872677 0.9999851275411715 2.927789682718976
0.1476116389891373 -0.06011150225500625 0.17493322954900414 -0.0008712213275662588 -0.00022980793619641583 0.9999995940807729 2.3764886971064207
0.13245513486656152 -0.06848692955923194 0.17828073981397308 0.005829163859950708 -0.007289707922624122 0.9999564395547921 1.6595890479034636
0.12320145810809954 -0.06817540724377832 0.1697639080247481 0.0028591417781914366 -0.0035431091224562565 0.9999896357893109 1.4468783841784465
0.11909043690845733 -0.06732019924470996 0.16407013991588212 0.0024275245274459956 -0.0029751322555064672 0.999992627829191 1.3942852448883856
0.11209176240892411 -0.06595430266182443 0.1677291620192628 0.0011229111380072674 -0.0013737443415592137 0.9999984259472914 1.3645781926467653
0.1062081983835706 -0.06474059841269451 0.16835114241599827 0.0004929434323787956 -0.0006026990347722149 0.9999996968802771 1.342102651992333
0.10050828071922352 -0.06350321131999857 0.16550867175718728 0.002824478560007113 -0.0035450053285050707 0.9999897275762811 1.341562032548608
0.09424423901798043 -0.0622404794227152 0.16313447864301486 0.0014006131655137355 -0.0017618241979079955 0.9999974671259203 1.3325512808437492
0.08611528058032936 -0.060450355509134523 0.1657246371963383 0.003597744247076684 -0.004469591981029483 0.9999835393564516 1.348659647991945
0.07960511309538781 -0.05913386279102542 0.16850059107398802 0.0018874322628762256 -0.0023622436680910196 0.9999954286917045 1.3340226089521676
0.07049503399350024 -0.05707223664914969 0.16708972581312384 0.003065767125329888 -0.003814111552014278 0.9999880267408215 1.3467903234589156
0.060950157424077535 -0.055128106682960636 0.1678132915853305 0.0021731155395320755 -0.0026767888583530556 0.9999940561674651 1.354349070893973
0.054748088302160054 -0.05387034339208812 0.16549779680025464 0.001744255379596543 -0.002130760135913535 0.99999620871002 1.3666141133087115
0.049619619974063583 -0.05296230978531055 0.1695944010317704 -0.003534026435776385 0.004383991220720428 0.9999841455133814 1.361383970596352
0.054781181417866524 -0.053983641891319246 0.17354268233651987 -0.0004698838066361357 0.0005832368096793614 0.9999997195219767 1.369843007002834
0.06198130120077056 -0.05533016128129302 0.172652025001306 0.003399279891131418 -0.004211275613691507 0.9999853549197244 1.3633130023171864
0.06817736530473771 -0.05658204961191397 0.17269304692023799 0.004060527874223882 -0.004981613599082068 0.9999793476064054 1.370979716559312
0.07343295104890732 -0.05769565680336808 0.170695055921351 0.0045254964915205425 -0.005597601249306063 0.999974093035294 1.3622143282878203
0.08263032858011533 -0.05967587677202796 0.1732319806894611 0.005494175313821525 -0.006755815573323371 0.9999620857780359 1.3683640621443398
0.08843145777743634 -0.06104686649888988 0.17071215485722094 0.0005128927559952233 -0.000639233938846618 0.9999996641604397 1.3668241867999211
0.09445106593641892 -0.06233434772014526 0.16858596877541782 0.001200700733734709 -0.0015006852474778501 0.9999981531290626 1.3658659600508756
0.09387213220851201 -0.0621480748525925 0.17526587892475876 0.0031486656656963905 -0.003935686968693765 0.9999872980556355 1.3535916963518044
0.10280262502609948 -0.06402103897519786 0.17515651457600706 0.0030777970123759494 -0.0037481871522819124 0.9999882390601513 1.3798165425219946
0.1136414719170353 -0.06614788258565481 0.1726972794239346 0.0041745533265832805 -0.005209535384681442 0.9999777166745263 1.3561019070183835
0.10973055002859937 -0.06533543772511011 0.17585848250966715 0.004820749396120905 -0.00581111926623506 0.9999714952278056 1.3845702825175694
0.11805349100992697 -0.06710361593501807 0.1769541870435727 0.0051638834017119755 -0.006327061355366475 0.9999666507453232 1.3716319828633432
0.11655336838619662 -0.06687237254013206 0.18162954193369577 0.002659019747300797 -0.0032456494432631243 0.9999911976480969 1.3734362718879707
0.1110575378598694 -0.06585404290984538 0.18255115913741332 0.00010005029330755796 -9.131745942872623e-05 0.99999999082553 1.3527741893560843
0.10557601559060882 -0.06462949846686715 0.18068658566102083 0.0009452923952611677 -0.0011778096503483053 0.9999988595927073 1.3423419705136663
0.10032599940293441 -0.06359613104913626 0.18018936951089898 0.0011508139084681105 -0.0014310072457478496 0.9999983139213838 1.3451472717825244
0.0943602194812912 -0.06234821701497075 0.1829946022854924 0.0022587994307826475 -0.0028164863912867317 0.9999934825935314 1.3462871556904574
0.0861764624191401 -0.0605443488659627 0.17943598869815167 0.002212797428697521 -0.0027346323300960675 0.9999938126376376 1.3551486603163374
0.07637764327342939 -0.058370756173517675 0.176576688201667 0.005143210073818389 -0.0063035939140730635 0.9999669054993287 1.3635600833088208
0.06985801392696644 -0.05694766968849207 0.17851032580302906 0.006351284812996618 -0.007920053282417624 0.9999484656407187 1.3493488012621895
0.06282989290580632 -0.05544655419836056 0.1784989501946272 0.0070230204369709105 -0.00870589007598496 0.99993744037411 1.3552057245812965
0.05485422672579102 -0.053808046436418455 0.17937163070679982 0.007272375231680127 -0.00889943437477025 0.9999339541321212 1.368400690154712
0.049015679498860855 -0.05261316176147709 0.1762979953405283 0.0048094683556307045 -0.005947282561082181 0.9999707489943267 1.3559258277802715
0.035873730071227274 -0.04680551341484679 0.17273398168142642 0.0030796390532781973 -0.00578141696710578 0.9999785452904246 0.7433583956265976
0.030471854349935275 -0.03967990678941254 0.17759415896307298 0.003808169306931442 -0.014731729471332038 0.9998842302953445 0.4960352628023423
0.027249055088998497 -0.026472792622811814 0.16963859649153237 0.05253828751193338 -0.6004353510275348 -0.7979455605376564 0.007010971424977561
0.028653173661883226 -0.018229263625384743 0.16406583076469947 -0.008747961203247171 -0.15334749512736237 -0.9881336037768123 0.10014758258803927
0.029960868546255584 -0.009684082151405121 0.1671533234099266 0.00034088338567670536 -0.006090808082908041 -0.9999813927545925 0.1536634302765323
0.03217098708620265 0.001781318355693826 0.16676397317707234 -0.0016075257288752007 -0.020370808497686122 -0.9997912012126239 0.18083876267932197
0.03326376149844412 0.006866311052174664 0.1624030937999253 -0.00321922211910805 -0.032994783046178644 -0.9994503393869469 0.19733012332783187
0.03453237055274229 0.013248563488804868 0.1622509524079697 -0.003001597162353511 -0.03150844071064108 -0.9994989787780971 0.19321739794051726
0.03585467976889894 0.02047882464205441 0.1602135455840215 -0.00047861716832600583 -0.005742899254934001 -0.9999833948790119 0.19890005075068332
0.03701113552952219 0.025622647354078987 0.16243125988724652 -0.0023811663073698545 -0.022171112221760794 -0.9997513550027661 0.21450583212808177
0.03531069277795998 0.01793393259521808 0.166287003246639 -0.0004167149346012106 -0.0027928356192897068 -0.9999960132009862 0.1962780060547939
0.03395176552879785 0.011060190331824753 0.1665069104070258 0.0009707667758852753 0.011275010105879611 -0.9999359638291739 0.1902777443035664
0.033047300646952577 0.0062973976194972804 0.17103764011833245 -0.002414567600186648 -0.022811233766600887 -0.9997368741210608 0.19909856493823902
0.03203503806871297 0.0007806088564571035 0.1714549443891791 -0.004196764754952513 -0.043442058408493044 -0.9990471333860202 0.19011141597798897
0.0309460510274526 -0.0043915495796856465 0.17345508615428293 -0.0025357254313125677 -0.025835160527926965 -0.9996630005041865 0.19331138385507576
0.0296453478381459 -0.011964455758463109 0.17253439432573983 -0.005532318455259702 -0.05516089024132053 -0.9984621523324231 0.1977414596534993
0.028551455154291763 -0.017807836565264922 0.1732739913037345 -0.00416441431796983 -0.04479467318664776 -0.9989875349109666 0.17926057234759807
0.028224678853860687 -0.0196795209283201 0.17813546378867529 -0.004687741904854179 -0.043799445124686594 -0.9990293457564714 0.2106651893716553
0.029523103054210537 -0.01230041829225038 0.17790032404706488 -0.004821027080356188 -0.045922339706031955 -0.99893337936712 0.20844445040847304
0.030626240861689077 -0.006358208737799515 0.17985170667872347 -0.004975484065236118 -0.05250085782836859 -0.9986084840845294 0.19047375030346567
0.031730284538691735 -0.0009753446686252459 0.17869116718124986 -0.004795531382114127 -0.05507436416493967 -0.9984707393261911 0.1750242350775723
0.033798802539937764 0.00993994730506901 0.17520799309067397 -0.0014943113221115225 -0.017705502580232114 -0.9998421286443445 0.18632394564693547
0.03496350874088762 0.015841796969983595 0.17297996382924588 -0.0024438059006895497 -0.026766989198366488 -0.9996387127867619 0.18875147749681306
0.03655844781067066 0.02385873226504715 0.16949874903647527 -0.0005481879473304427 -0.0064935216365171675 -0.9999787666079368 0.20256063765685162
0.03790404419153833 0.02997925823994648 0.17115088676065418 -0.0012502731263508763 -0.01163734078067302 -0.9999315022123586 0.22457413673951135
0.03926567011492551 0.03579414140892893 0.16749094890865335 -0.0003644203071383268 -0.003758068189887241 -0.9999928720352561 0.23929958198785087
0.04120871937828665 0.04365114453828609 0.16830901311693408 -4.297616027198146e-05 -0.0011668936299377354 -0.9999993182559207 0.23799832309416447
0.04375826805861569 0.053638886504986154 0.16657031285671034 0.0019739993824083335 0.01444923806683422 -0.9998936557683153 0.25677949096179975
0.04284768134910745 0.05052971087720488 0.1702628564297781 0.003511903605649533 0.02726388512338628 -0.9996221021471281 0.25490720572950387
0.044297024843407785 0.05528071968096216 0.17258203507327005 -0.0004974075110332888 -0.003091611188869711 -0.999995097250994 0.2733061047991527
0.042403730682599984 0.048497982718350534 0.1758286831524127 -0.0004291746796534272 -0.002919398013738319 -0.9999956464526892 0.24671928060547377
0.040102785184791954 0.03898768238238683 0.1729454538744406 -0.00019005921119923623 -0.001025618429528919 -0.9999994559920187 0.24445563124543462
0.03855406550547114 0.03246088064550521 0.17630454303114892 -0.0029114950581724973 -0.024524249534473474 -0.99969499567683 0.23427841007527148
0.036222655186150136 0.022615322782358085 0.17626983901772958 1.136538387071188e-05 0.0017772585695550295 -0.9999984206101553 0.21712186547226953
0.03521173104710143 0.017149890713270333 0.17927464279960317 -0.001545818866896731 -0.015400959315289706 -0.9998802032724718 0.19770021110566954
0.033676470084446596 0.009306065915849029 0.17958464871476854 -0.0023637603461933833 -0.022323224869335932 -0.9997480113850984 0.20625866614739718
0.03439631637777496 0.01308414749247755 0.18360468912827732 -0.0032857742270446483 -0.03258196486360502 -0.9994636657994905 0.2016785535160833
0.036627543804715994 0.02435991067860965 0.18122509385894314 -0.0004588716296324359 -0.005328057746748395 -0.9999857005164999 0.21495079369866482
0.03801259015885484 0.030822027305087842 0.1829755921972727 0.0020291058214195854 0.01709017483334974 -0.999851893359077 0.22387812636129245
0.039793720675875464 0.03833029773327789 0.18148626123113443 0.0029526279144722247 0.023946303700444486 -0.99970888589003 0.23854791430320524
0.041344332575491166 0.0443035196800102 0.18274110394843823 0.0018044257809049181 0.014569000334214684 -0.9998922383321429 0.23671597881198111
0.04347559281447016 0.05229222551173115 0.18095741310900304 -0.0030410045122666236 -0.020385412837794565 -0.9997875710544661 0.2777873904984424
0.04425639563703021 0.05529842924482599 0.18694915899717776 -0.0005395985178504639 -0.003438117114148209 -0.9999939440737373 0.2696006629525694
0.04223898326650591 0.047924102926933956 0.18908088410580445 0.0006755237075602271 0.006461579984887188 -0.999978895603212 0.24223459333504815
0.04099965022065123 0.042718053208129506 0.18794704641858706 -0.000701428155544271 -0.004962489430841087 -0.9999874407697286 0.2468857769607862
0.03955602146526286 0.036413500639249134 0.18713139535411522 -0.003797577981422715 -0.03186548587541608 -0.9994849519684619 0.236908046780505
0.037249674929971846 0.027124405662512778 0.18661038150513534 -0.0016840842761816188 -0.013918271736793804 -0.9999017179563258 0.2274653134995003
0.03571191842758724 0.020249850857912702 0.1853158638742358 0.00045356226435335693 0.005658623420857149 -0.9999838870013121 0.2086456288457995
0.03563765542250187 0.01969991431258442 0.1903786219590518 -0.00193585617252492 -0.0184968263762868 -0.999827044980723 0.20539897751117475
0.03352269667302591 0.009131763634852292 0.18662467842023098 0.0009386060678252953 0.009459845862523086 -0.9999548141465727 0.20691055436449282
0.03203868532746903 0.0016955798505874716 0.18439909966712542 -0.0011612775878860689 -0.012536080307741268 -0.9999207459218363 0.18715307202933107
0.031088006427761643 -0.003338813087611559 0.18662760954834803 -0.001216316102105866 -0.011904359061176331 -0.9999284008420216 0.20065084314507328
0.029938422167045266 -0.009465360466110571 0.18404809835382693 -0.0012718733664498542 -0.012178938777490983 -0.9999250250835778 0.19953069907002816
0.028839408165166974 -0.015998192095725193 0.18218316332742476 -0.005741416611323781 -0.07832318003501672 -0.9969114883501431 0.15714762318134134
0.027851914085504453 -0.02066992190601383 0.1843856371268435 -0.0017853584332173913 -0.022786448789515388 -0.9997387610005065 0.18354124433899438
0.028591726029213352 -0.017546691603947246 0.18771989273695705 -0.005275076812002365 -0.07623005949827573 -0.9970763017911501 0.15041748084574577
0.030100643630759788 -0.010191246564648464 0.18907695208502576 -0.010005176042938367 -0.12066141426442795 -0.9926432992571188 0.1668187213176064
0.031951179927963785 -0.0002801190573897083 0.1899215260702182 -0.008550397319034632 -0.09696918005839164 -0.9952506562793565 0.17847034085868058
0.031391449170797434 -0.0021637494555335657 0.19451122619745503 -0.0023961714694254 -0.02647211006533426 -0.9996466804581396 0.1991563203007886
0.03252853593182554 0.003815364446596235 0.19461894463387677 -0.0037930223360089057 -0.0386709002117868 -0.9992448020672254 0.20120337378968664
0.03430728346906971 0.012644227347698742 0.19101811094949403 -0.0029668039900070838 -0.03054679949852838 -0.9995289346059381 0.19977146260538164
0.033776410688532515 0.009914267281572475 0.19466542456466204 -0.00326720834675593 -0.03384510175856794 -0.9994217500317727 0.19345398235812314
0.03446430943331487 0.013680923759035247 0.19789069380887037 -0.003289028903869203 -0.03430781046977277 -0.9994059017384476 0.1933894585901482
0.03552881964202471 0.019121941035920593 0.19693509411665028 -0.0029195209815210646 -0.029507655505217625 -0.99956029065976 0.20207499842656557
0.03738688283379424 0.02785687357356789 0.19229995370813474 0.0016194230927780188 0.012683274364266374 -0.9999182526688106 0.22256583258253027
0.0387119608102825 0.03465445746484223 0.19287555684120625 0.007407177720269487 0.062169221886778196 -0.9980381363295757 0.23150388898394575
0.040787216780614165 0.04209149048910037 0.19510884136404127 0.0019771811975501526 0.01623710806772872 -0.9998662145887863 0.2426716556883301
0.042731807002543844 0.04957686868752715 0.19437746267214567 -0.0009402616137855793 -0.0077877189459314424 -0.9999692331975603 0.2451506459647944
0.04492053692445446 0.057335899332475904 0.19609668458875437 -0.002197251108175727 -0.011952197679234097 -0.9999261558026192 0.35234434449529645
0.05599754101760694 0.07131528306440961 0.18440037359300665 0.00797723978224039 0.005958638726489211 -0.9999504279062957 1.3763522688703018
0.0671142347248493 0.07445359198330052 0.19175462347019098 0.012678251105397057 0.011808085401347033 -0.9998499042696675 1.5446093359504607
0.07701225670929546 0.07248340774315917 0.18331225696852904 0.001963300327588941 0.0019520955377259645 -0.9999961673800731 1.7354481638609072
0.08509957521478481 0.07056817410940734 0.18587395234164733 -7.526863561568148e-05 4.0820577872671046e-05 -0.9999999963341563 1.7694134587931882
0.09137013797985452 0.06900596851640445 0.18621066949850626 -0.0021490935007800597 -0.0017043432028598128 -0.9999962382986108 1.7832956252671253
0.09954981147015428 0.06732926514685939 0.18295205183899263 0.0020958276686676965 0.0016465881472934143 -0.9999964481206203 1.7981036002294033
0.1083368856352809 0.0653616960894926 0.18094280340978228 0.003805074450283294 0.0029797716453411347 -0.9999883211164866 1.8044237364042437
0.11537364279272208 0.06370389477457293 0.18016065013391175 0.003872910871776085 0.003030824343194195 -0.999987907259473 1.805089171455039
