0.002509254 -0.04495306 0.004166606 0.443507 -0.896106 0.0068314
0.01091496 -0.04033864 0.000114272 0.515554 -0.856265 -0.0310207
0.01454918 -0.03834375 0.0008606599 0.489323 -0.872041 -0.00129801
0.0203399 -0.03516546 -0.0004418923 0.469192 -0.882738 -0.0226211
0.02365174 -0.03339462 -0.0005092596 0.481359 -0.876326 -0.017573
0.02692175 -0.0314355 0.0003920705 0.527945 -0.847854 0.00501321
0.03320863 -0.02805679 0.0002431202 0.47407 -0.88022 -0.0197202
0.03765294 -0.0254956 -0.00195661 0.452971 -0.891326 0.00518481
0.03778244 -0.02558685 0.00225631 0.396217 -0.91734 0.0314585
0.03102989 -0.02931492 0.002881498 0.479688 -0.877312 -0.0147805
0.03480984 -0.02718819 0.003668726 0.444388 -0.894949 -0.0396651
0.04116397 -0.02368173 0.001330166 0.441862 -0.896507 -0.0294571
0.04395758 -0.02208344 0.0005892015 0.463476 -0.884913 -0.0448135
0.04722764 -0.02023374 0.0006120983 0.518175 -0.854184 -0.0398344
0.05652826 -0.01493168 -0.001463263 0.508022 -0.86047 -0.0285337
0.06153338 -0.01193502 -0.002163095 0.497219 -0.865039 -0.0668443
0.06723721 -0.0072998 -0.007809526 0.832455 -0.525095 -0.118243
0.06767438 -0.006660837 -0.004393979 0.997035 -0.0555574 -0.00215
0.06622091 -0.004017132 -0.007544408 0.812604 0.498079 -0.286932
0.06481142 -0.002880592 -0.01052537 0.871602 0.481259 -0.092113
0.06293821 0.0006431234 -0.01146932 0.887656 0.446716 -0.103023
0.06110874 0.003352773 -0.01307688 0.87485 0.459932 -0.151911
0.05840728 0.008771973 -0.01200903 0.883986 0.43514 -0.170574
0.05636731 0.01263692 -0.01221921 0.889656 0.450387 -0.0730183
0.05462309 0.01589908 -0.01165038 0.875075 0.483331 -0.0237442
0.05446917 0.01793307 -0.007927648 0.890783 0.428812 -0.135482
0.05657541 0.01378002 -0.007910824 0.868064 0.408799 -0.276133
0.06001398 0.006078029 -0.01094833 0.859509 0.510256 0.0245546
0.06063158 0.006471231 -0.007029102 0.871703 0.489528 -0.0136692
0.06277031 0.002250538 -0.007563775 0.889056 0.40539 -0.190151
0.06477276 -0.001243978 -0.006422747 0.875672 0.482418 -0.00628481
0.06364363 0.0006754262 -0.00368289 0.883697 0.467736 0.0173282
0.06540123 -0.002624309 -0.003508164 0.883068 0.468481 0.0264808
0.06120006 0.005316385 -0.003697122 0.880559 0.47288 0.0298526
0.05961963 0.00823588 -0.003500388 0.885955 0.463609 0.0112861
0.05788759 0.01018333 -0.008687854 0.848237 0.42557 -0.299979
0.05221039 0.02057598 -0.009653999 0.894735 0.445942 -0.00668112
0.05150757 0.023391 -0.008073109 0.841672 0.484296 -0.221396
0.04995713 0.02476812 -0.01088407 0.900134 0.435287 0.001469
0.04778241 0.02895721 -0.01072474 0.862132 0.504122 -0.0462237
0.04634489 0.031497 -0.01233251 0.881728 0.465418 -0.0262981
0.04440714 0.03542394 -0.009763088 0.836261 0.535467 -0.11606
0.04265242 0.03891405 -0.009886394 0.879414 0.456176 -0.135066
0.04188848 0.04160913 -0.007846132 0.872234 0.488697 0.00522851
0.04002038 0.04511894 -0.006808991 0.894753 0.438228 0.0846231
0.04162939 0.0420464 -0.003721207 0.883756 0.46715 0.0233693
0.04444693 0.03653616 -0.006100692 0.875039 0.480188 0.0484784
0.04636858 0.0330105 -0.00683868 0.888288 0.455165 0.059245
0.04862862 0.02881373 -0.006948651 0.878656 0.47706 -0.00161235
0.05082744 0.02468009 -0.005031117 0.883438 0.468342 0.00294837
0.05246843 0.02159813 -0.003581828 0.879983 0.474966 0.00179984
0.05450542 0.01779363 -0.003657389 0.886735 0.462185 0.00780858
0.05644146 0.01419059 -0.00434191 0.880174 0.474581 0.00612896
0.05810694 0.01108744 -0.004130329 0.876002 0.482106 0.0136128
0.05656462 0.01387444 -0.0007776176 0.874988 0.484037 0.00539618
0.05517107 0.01641821 0.001051896 0.870544 0.491011 0.0322925
0.05247629 0.02146376 0.0003093663 0.88274 0.468966 0.0272598
0.04934967 0.02742007 -0.003086127 0.882185 0.470778 0.0100606
0.04763778 0.03059794 -0.00258267 0.867058 0.498159 0.00073675
0.04585148 0.03393366 -0.003012102 0.876914 0.480545 0.00931179
0.04314905 0.03904177 -0.004054943 0.881659 0.471465 0.0178322
0.03781597 0.04919473 -0.005484136 0.864499 0.501492 0.0318407
0.0336626 0.05720194 -0.006028084 0.903703 0.418062 0.0889556
0.03606158 0.05231109 -0.004098253 0.876908 0.480385 0.0144497
0.03252197 0.0590868 -0.003157719 0.865557 0.4969 0.0611028
0.03078996 0.06238962 -0.003393114 0.88382 0.461221 0.0770756
0.03048928 0.06264853 -0.0001010538 0.887431 0.456383 0.064147
0.03259991 0.05868002 0.0001966321 0.900725 0.433443 0.0241998
0.03412107 0.05584045 -0.001309915 0.882278 0.469182 0.0348754
0.03725013 0.0501152 -0.001543675 0.886267 0.460431 0.0443495
0.03976517 0.04530318 -0.002588363 0.86908 0.494476 0.000258886
0.03855402 0.0476459 0.001363098 0.874085 0.481487 0.0641141
0.04029282 0.04416612 0.001157963 0.868697 0.493019 0.0463985
0.04250818 0.04013162 -0.0006588146 0.896031 0.442937 0.0292225
0.04435885 0.03666477 -0.0002183985 0.882258 0.470183 0.0231425
0.04600351 0.03351117 0.001231229 0.874062 0.484463 0.0358897
0.04862108 0.02870605 5.365792e-05 0.886262 0.462455 0.0259189
0.05083641 0.02455903 0.0005275703 0.882434 0.469599 0.0274674
0.05374902 0.01892029 0.002696907 0.877477 0.476874 0.0510292
0.05071254 0.02444365 0.004023101 0.881273 0.469581 0.0531339
0.04824962 0.02901104 0.004569237 0.884964 0.461553 0.0616431
0.04647545 0.03230817 0.004948771 0.88418 0.464492 0.049201
0.04340708 0.03831206 0.002555667 0.885556 0.46373 0.0267903
0.04189137 0.04125444 0.002374375 0.909284 0.411287 0.0497384
0.04465792 0.03575936 0.004251791 0.877353 0.47766 0.0445541
0.04256987 0.03943779 0.005987056 0.869506 0.489132 0.0685416
0.04103163 0.0425029 0.005370537 0.895361 0.444234 0.0293074
0.03866467 0.04712751 0.00512494 0.868638 0.49356 0.0268519
0.03525383 0.0535838 0.001022249 0.890258 0.454778 0.0234647
0.03662089 0.05096348 0.002775843 0.866915 0.495433 0.0536205
0.03355911 0.05648237 0.003504259 0.906766 0.417029 0.060621
0.03521718 0.05318635 0.004777886 0.901499 0.42699 0.0698899
0.03678926 0.05018997 0.006493073 0.858082 0.503547 0.0992805
0.03125809 0.06093191 0.00295043 0.895781 0.439122 0.0684983
0.02936492 0.06436577 0.00498803 0.88872 0.451931 0.0739038
0.03108647 0.06062091 0.006216736 0.826848 0.533817 0.176081
0.02930634 0.06366618 0.00849999 0.840975 0.52667 0.120108
0.0275979 0.0664234 0.009682041 0.89384 0.404854 0.190724
0.03220696 0.05808989 0.008379885 0.906884 0.400896 0.129529
0.03478731 0.05310055 0.00906918 0.895403 0.427274 0.124978
0.0397421 0.04435211 0.008136041 0.88504 0.446371 0.130957
0.04121332 0.04119963 0.0103494 0.903668 0.393578 0.166424
0.04399431 0.0363038 0.00845649 0.874678 0.467999 0.12584
0.04783375 0.02911804 0.008333463 0.88056 0.456876 0.125751
0.04960688 0.02601116 0.007157817 0.869032 0.485666 0.0932762
0.05225341 0.02133285 0.005699217 0.88069 0.468056 0.0726999
0.05530072 0.01572366 0.005401175 0.886326 0.457749 0.0697399
0.05667749 0.01337462 0.003555259 0.880452 0.47174 0.0461782
0.06049231 0.006451165 9.440053e-05 0.880996 0.472782 0.0157553
0.0622179 0.003174155 9.324799e-05 0.885149 0.464588 0.0255167
0.06549445 -0.003020935 -7.072789e-06 0.877915 0.47822 0.0236001
0.06370509 0.0002480845 0.001359557 0.889212 0.455885 0.0371208
0.06744377 -0.006753118 0.0005674664 0.973444 -0.111911 0.00410014
0.06696539 -0.007848449 0.004894292 0.780284 -0.623573 -0.0401285
0.06539439 -0.009799667 0.001313248 0.687663 -0.722063 -0.0705932
0.06457322 -0.01091353 0.006078262 0.542422 -0.834993 -0.0913707
0.06099685 -0.01263048 0.002343623 0.486057 -0.870224 -0.0799808
0.05785868 -0.01434563 0.001711481 0.494972 -0.865522 -0.0737426
0.05068988 -0.01842171 0.002895941 0.498176 -0.866885 -0.0135663
0.04789935 -0.02001147 0.003884459 0.49478 -0.867408 -0.0527794
0.05355072 -0.01694691 0.004992042 0.491961 -0.866667 -0.0821151
0.05844069 -0.01435303 0.005915287 0.47199 -0.878094 -0.0603685
0.06134094 -0.01275622 0.005830565 0.497372 -0.863035 -0.0880833
0.06171272 -0.01288196 0.009191903 0.454381 -0.888369 -0.0656742
0.05545854 -0.01602951 0.007497938 0.48554 -0.871789 -0.060473
0.05013531 -0.01887828 0.006146259 0.420613 -0.906264 -0.0382443
0.04556389 -0.02141746 0.006056944 0.467101 -0.883 -0.0410851
0.04261974 -0.02304386 0.006251703 0.49019 -0.871183 -0.0253235
0.03958078 -0.02464338 0.005217882 0.569164 -0.821449 -0.0336545
0.03827448 -0.02546996 0.008494282 0.634543 -0.772096 -0.0231674
0.04928825 -0.0195561 0.01019278 0.644313 -0.761022 -0.0735186
0.05878548 -0.01443376 0.01001564 0.438769 -0.896238 -0.0506151
0.05547486 -0.01623832 0.01093185 0.501835 -0.861243 -0.0747602
0.05259543 -0.01784834 0.01190593 0.424661 -0.903186 -0.0549482
0.04670486 -0.02105504 0.0122382 0.486744 -0.872724 -0.0377336
0.04132197 -0.02387712 0.01017456 0.43111 -0.901779 -0.0279771
0.03273154 -0.0284594 0.007047314 0.49234 -0.870367 -0.00649911
0.02937005 -0.03024131 0.005658613 0.468282 -0.883484 -0.0110636
0.02615606 -0.03201038 0.003632806 0.562902 -0.822947 -0.0719923
0.02158941 -0.03457357 0.003196686 0.482176 -0.875957 0.00796357
0.01769464 -0.03666499 0.001532315 0.51553 -0.854125 -0.0673263
0.01352871 -0.03886868 0.004138084 0.482889 -0.875007 0.0264492
0.009379712 -0.04116807 0.003425949 0.489372 -0.87085 0.0439318
0.01113962 -0.04021095 0.006683943 0.478617 -0.877448 0.0282828
0.008007826 -0.04189932 0.006382984 0.458958 -0.888329 -0.010089
0.005103718 -0.04350265 0.005882057 0.460876 -0.887027 0.0148938
0.002256016 -0.04499223 0.007441663 0.467302 -0.883667 0.0249892
-0.005077688 -0.04880324 0.00551594 0.440586 -0.897465 0.0207384
-0.01029844 -0.0515542 0.004266772 0.434561 -0.900532 0.0109537
-0.01406761 -0.05355206 0.004802646 0.399775 -0.916472 0.00746245
-0.02231522 -0.05785727 0.00320758 0.41584 -0.908999 0.00293452
-0.02004537 -0.05669112 0.006147545 0.476766 -0.878927 -0.0116191
-0.01710056 -0.05523025 0.005163102 0.423614 -0.90562 0.00153963
-0.02643631 -0.05933133 0.004800195 0.158104 -0.987096 -0.0212655
-0.02600267 -0.05926736 0.008455749 0.211986 -0.976951 0.0105753
-0.03032459 -0.05886023 0.005342944 -0.335723 -0.935263 0.046212
-0.03055799 -0.05782645 0.00853995 -0.906939 -0.399947 0.130217
-0.03275296 -0.05381845 0.007644577 -0.891155 -0.445512 0.0824164
-0.03540398 -0.0490393 0.007299532 -0.885032 -0.434625 0.15874
-0.03794878 -0.0444779 0.00646092 -0.862664 -0.46662 0.189641
-0.03711931 -0.04506293 0.0105419 -0.862263 -0.464942 0.200528
-0.03993905 -0.04007163 0.009527462 -0.879657 -0.474274 -0.0299728
-0.03511762 -0.04870903 0.01093807 -0.786204 -0.398667 0.471946
-0.03243063 -0.05349712 0.01125337 -0.748105 -0.471984 0.458128
-0.02819891 -0.05761375 0.0125201 -0.140798 -0.066444 0.987001
-0.02928944 -0.05268819 0.01250769 -0.0507765 -0.0373753 0.997915
-0.03205197 -0.04941249 0.01232696 -0.0869642 -0.0422783 0.995289
-0.03728141 -0.0410971 0.01193334 -0.264776 -0.0960638 0.958932
-0.03915029 -0.0373066 0.01188748 -0.27099 -0.0891802 0.957874
-0.04258309 -0.03350957 0.01116952 -0.461539 -0.210194 0.861606
-0.04460353 -0.03001541 0.01093909 -0.555141 -0.248058 0.793605
-0.04744178 -0.02282034 0.01140511 -0.399609 -0.203085 0.893134
-0.04875286 -0.01685364 0.01174372 -0.149343 -0.0688235 0.986376
-0.04374712 -0.02341331 0.01211859 -0.128316 -0.0379931 0.990975
-0.0417496 -0.02811746 0.01210079 -0.145115 -0.0736348 0.986621
-0.0391517 -0.0336464 0.01218153 -0.153985 -0.0509417 0.986663
-0.0385199 -0.02936574 0.01248295 -0.114334 -0.0603274 0.991595
-0.03572416 -0.03807162 0.01238383 -0.11258 -0.0472494 0.992508
-0.03552068 -0.03462219 0.01262056 -0.0832624 -0.0182353 0.996352
-0.03468413 -0.03131675 0.01281942 -0.0969167 -0.0360511 0.994603
-0.03875592 -0.02516254 0.01267971 -0.119897 -0.0250253 0.99247
-0.04287117 -0.01998155 0.01239273 -0.132972 -0.0445682 0.990102
-0.04634301 -0.01406503 0.01219032 -0.124883 -0.047678 0.991023
-0.05210558 -0.008415129 0.01178908 -0.133793 -0.0490683 0.98969
-0.05726748 -0.005571551 0.01069301 -0.569708 -0.32016 0.756579
-0.05811572 -0.0001806322 0.01143226 -0.111957 -0.0413032 0.99249
-0.06272136 0.004658145 0.01048645 -0.656916 -0.288802 0.694974
-0.05866031 0.005680785 0.0114886 -0.0642483 -0.00605711 0.997875
-0.0571181 0.008822977 0.01159134 0.0112829 -0.0487497 0.998589
-0.05157177 -0.004757347 0.01198939 -0.114275 -0.0353733 0.992804
-0.05479074 -0.002700983 0.01172455 -0.122867 -0.0301608 0.991851
-0.05523463 0.002170855 0.01175017 -0.0843314 -0.00184128 0.996378
-0.0538743 0.005203833 0.01189044 -0.0806927 0.00169846 0.996707
-0.05648268 0.01264896 0.01156338 -0.146165 0.0943742 0.98439
-0.05290617 0.008416942 0.01185472 -0.0577738 0.0381195 0.997595
-0.04932893 0.01305249 0.01192091 -0.0280211 0.0306568 0.998967
-0.04653865 0.01599291 0.01201465 -0.0211919 -0.00318775 0.999726
-0.049236 0.008900343 0.0121188 -0.0635869 0.0415169 0.997067
-0.04528289 0.01971874 0.01183307 -0.045054 0.0839036 0.995442
-0.04070623 0.02675909 0.01158682 -0.0671416 0.04554 0.996635
-0.04217076 0.02305244 0.01176236 -0.046226 0.068711 0.99653
-0.03667826 0.02888298 0.01182734 -0.0819612 0.0682918 0.994246
-0.03315331 0.03243757 0.01190121 -0.12034 0.00711899 0.992678
-0.04311435 0.0169371 0.01212757 -0.0580859 0.0191412 0.998128
-0.04445164 0.01267016 0.01225469 -0.056932 0.0669531 0.996086
-0.03866504 0.02024684 0.01219389 -0.0780741 0.0809676 0.993634
-0.03551366 0.02449565 0.01217921 -0.103441 0.0779609 0.991562
-0.0308205 0.03512947 0.01205096 -0.0878329 0.0587594 0.994344
-0.02686516 0.03601838 0.01235998 -0.0992738 0.0754845 0.992173
-0.02834978 0.03209419 0.01243429 -0.119537 0.0446362 0.991819
-0.03079471 0.02874564 0.01232644 -0.0970562 0.0758671 0.992366
-0.03228594 0.02533593 0.01242827 -0.0960104 0.0520065 0.994004
-0.03515315 0.02065033 0.01244244 -0.0946 0.0704501 0.992991
-0.0391684 0.01676515 0.01234665 -0.0793816 0.0365606 0.996171
-0.04118914 0.01331231 0.01240697 -0.0657739 0.0741514 0.995073
-0.03584626 0.01706483 0.0126191 -0.0820245 0.0217552 0.996386
-0.04390208 0.008144427 0.01248131 -0.0662056 0.0265151 0.997442
-0.05060038 0.002872601 0.01216312 -0.047348 -0.00660947 0.998849
-0.05139436 -0.0007182701 0.0120742 -0.0941642 -0.014888 0.995415
-0.04789736 -4.067567e-05 0.01236775 -0.0674169 0.00836916 0.997686
-0.04747223 -0.003856041 0.0123836 -0.0783461 -0.000759659 0.996917
-0.04957312 -0.01091712 0.01194541 -0.119674 -0.050172 0.991538
-0.04713105 -0.008749525 0.01232713 -0.107229 -0.0331345 0.993653
-0.04389911 -0.01630277 0.01241149 -0.120438 -0.0358597 0.99207
-0.04311123 -0.01171697 0.01263678 -0.0993785 -0.024757 0.994726
-0.04485732 -0.006333606 0.01258273 -0.0804461 -0.00938689 0.996705
-0.04493672 -0.001469818 0.01258608 -0.070454 0.0195091 0.997297
-0.04675163 0.004277421 0.01240476 -0.0569648 0.0112499 0.998312
-0.04272736 0.001074502 0.01268632 -0.0960871 0.0338103 0.994709
-0.04154649 0.004284509 0.01271499 -0.0544823 0.0323046 0.997987
-0.04056544 0.009179625 0.01267755 -0.075231 0.0432377 0.996211
-0.03778499 0.01345092 0.01265359 -0.0769664 0.0613622 0.995138
-0.03434007 0.01405983 0.01287937 -0.0790872 0.0587552 0.995124
-0.03144185 0.02206133 0.01270432 -0.0844431 0.0541084 0.994955
-0.03149253 0.01806847 0.01293072 -0.0682667 0.0730894 0.994789
-0.02693144 0.02389554 0.01298786 -0.105096 0.0508095 0.993158
-0.02498052 0.02942486 0.01291221 -0.092198 0.028998 0.995313
-0.02465491 0.03360179 0.01275714 -0.117594 0.0548636 0.991538
-0.02323375 0.03820774 0.01259431 -0.0850135 0.0624941 0.994394
-0.01997408 0.03784063 0.01292625 -0.0918916 0.0630723 0.993705
-0.01709597 0.04273511 0.01284755 -0.0871692 0.0691325 0.993779
-0.01279029 0.0434712 0.01316971 -0.0778199 0.0850715 0.993326
-0.01457416 0.04034317 0.01324199 -0.109437 0.0877956 0.99007
-0.01640677 0.03660391 0.01335268 -0.0877035 0.0896512 0.992092
-0.02007975 0.03334867 0.01322728 -0.0841281 0.0508396 0.995148
-0.02113468 0.02874331 0.01333592 -0.104758 0.0459766 0.993432
-0.02277653 0.02505831 0.01333784 -0.0998123 0.0471932 0.993801
-0.02801134 0.01911703 0.01317719 -0.0882024 0.0633542 0.994082
-0.03053899 0.0135789 0.01322339 -0.075067 0.0424354 0.996261
-0.03572318 0.01071137 0.01293849 -0.0744194 0.0320526 0.996698
-0.03553816 0.007250519 0.01305514 -0.0646499 0.00219548 0.997859
-0.03730735 0.004178682 0.01299494 -0.0615459 0.0332566 0.997535
-0.03927657 -0.0001132624 0.01296532 -0.0867923 0.00382856 0.996211
-0.04188069 -0.00487412 0.01282128 -0.0657584 0.00131328 0.997829
-0.04171481 -0.008569375 0.01283006 -0.0841205 -0.00415023 0.996442
-0.03918146 -0.0133174 0.01298657 -0.0833709 -0.0138864 0.996414
-0.03923275 -0.01757536 0.01287676 -0.168124 -0.0607874 0.983865
-0.0381948 -0.02138586 0.01286761 -0.114079 -0.014656 0.993344
-0.03563761 -0.01906794 0.01319713 -0.0727805 -0.0374285 0.996592
-0.03457556 -0.02401659 0.01315763 -0.099914 -0.0307541 0.994515
-0.0342108 -0.02757204 0.01306455 -0.0762593 -0.0436635 0.996088
-0.03237879 -0.03794565 0.01275465 -0.122412 -0.0327805 0.991913
-0.03326801 -0.04193253 0.01248771 -0.116332 -0.0417569 0.992283
-0.03100874 -0.04458785 0.01261202 -0.192946 -0.0508678 0.979802
-0.03018789 -0.04047462 0.01284636 -0.0545143 -0.0235306 0.998214
-0.02806588 -0.04620361 0.01279107 -0.138038 -0.036034 0.989424
-0.02752991 -0.04285866 0.01293242 -0.0828293 -0.0715711 0.993906
-0.0259179 -0.04966947 0.01278224 -0.0690341 -0.048741 0.996298
-0.02355328 -0.05460281 0.01274126 -0.00692106 -0.0555905 0.998385
-0.02502581 -0.0588205 0.01179549 0.390974 -0.744946 0.536255
-0.0205664 -0.05644719 0.01214793 0.3782 -0.679636 0.621012
-0.01657113 -0.05413868 0.01248304 0.175476 -0.482012 0.858266
-0.01173595 -0.05052665 0.01299034 0.0212428 -0.103874 0.99402
-0.007563969 -0.04964105 0.01258688 0.314227 -0.642984 0.694673
-0.01268988 -0.05279113 0.01081356 0.499092 -0.863528 -0.0706627
-0.01198669 -0.05244456 0.007545143 0.46039 -0.887437 -0.0222384
-0.008407352 -0.05052217 0.007499932 0.486942 -0.873346 0.00750123
-0.00139046 -0.04681741 0.007559045 0.458163 -0.888718 -0.0149612
-0.004953428 -0.0486758 0.00880044 0.466629 -0.884254 -0.00187815
-0.001231981 -0.04671163 0.01114314 0.440579 -0.895541 -0.0595279
0.00477889 -0.04351275 0.01014051 0.451325 -0.892206 -0.0103882
0.007839633 -0.04195943 0.01024996 0.488102 -0.8716 -0.0433896
0.01408232 -0.0386336 0.007442364 0.492829 -0.86999 -0.0046267
0.01716887 -0.03698391 0.005770256 0.466955 -0.883171 -0.0365405
0.02254275 -0.0340151 0.006542628 0.479087 -0.877463 0.00693965
0.02549712 -0.03248071 0.007450627 0.507903 -0.86065 0.00705229
0.02790555 -0.03100625 0.009514734 0.317093 -0.948153 -0.000711038
0.02083927 -0.03497737 0.009755184 0.452269 -0.891701 0.0133149
0.01692223 -0.03708361 0.01054808 0.479277 -0.876738 0.0380714
0.01221607 -0.03963174 0.01014217 0.452821 -0.890523 -0.0382953
0.01466091 -0.03836882 0.0128878 0.408911 -0.907608 0.0851385
0.01053251 -0.04017916 0.01302573 0.263246 -0.663868 0.699632
0.001530987 -0.0450562 0.01265929 0.442659 -0.675039 0.588078
0.007173561 -0.04133301 0.01341765 0.148229 -0.429 0.889825
-0.005490407 -0.04695203 0.01316686 0.0111866 -0.0801513 0.996654
-0.009755884 -0.04680607 0.01317319 -0.0199169 -0.0173555 0.999637
-0.01947124 -0.05239389 0.01287567 -0.00860841 -0.0478568 0.998785
-0.022411 -0.05081709 0.01287427 0.00122415 0.00782332 0.999922
-0.02075925 -0.03776277 0.01341949 -0.0225288 -0.0780221 0.996665
-0.0230237 -0.04752143 0.01298268 -0.0264973 -0.0582621 0.99792
-0.01822609 -0.04881979 0.01302729 -0.0374379 -0.0902121 0.995033
-0.01485829 -0.04920022 0.0130427 -0.0434284 -0.0384825 0.998176
-0.01988305 -0.04561237 0.01310537 -0.0233229 -0.0265517 0.998894
-0.02409346 -0.0436312 0.01310923 -0.0320562 -0.0268005 0.999057
-0.02461547 -0.0400012 0.01321518 -0.0715807 -0.0172302 0.997223
-0.03150111 -0.03445023 0.0129916 -0.0795004 -0.0290967 0.996407
-0.02752033 -0.038103 0.01315061 -0.0604225 -0.0335867 0.997599
-0.02526529 -0.03550378 0.01335778 -0.059162 -0.044232 0.997243
-0.02668808 -0.0325227 0.01337651 -0.0477177 -0.0373934 0.998147
-0.03083755 -0.02813585 0.01330648 -0.0468652 -0.0576402 0.997228
-0.02670674 -0.02802243 0.01354302 -0.0359724 -0.0259078 0.999003
-0.03090007 -0.02453776 0.01341494 -0.0658291 -0.0336708 0.997258
-0.03236534 -0.02147528 0.01339766 -0.0738358 -0.0306379 0.996798
-0.03307009 -0.016006 0.01341032 -0.0824252 0.0422416 0.995662
-0.03817855 -0.009529589 0.01305561 -0.0885382 0.0359303 0.995391
-0.03841315 -0.003423257 0.01307202 -0.0685636 0.00495155 0.99763
-0.03672248 -0.006353421 0.01318934 -0.0851348 0.0150977 0.996225
-0.03566318 0.0005808713 0.01319576 -0.0453797 -0.000266648 0.998886
-0.03482779 -0.00313669 0.01335392 -0.051039 0.0221304 0.998401
-0.034106 0.003526795 0.01328589 -0.090796 0.0433652 0.994861
-0.03111793 0.01031284 0.01326379 -0.0560059 0.00770461 0.998398
-0.03083896 0.005648131 0.01347059 -0.0740598 0.0237878 0.996946
-0.02858031 0.008057902 0.01355298 -0.147042 0.0729448 0.986257
-0.02764228 0.01510799 0.01339399 -0.0813969 0.0288767 0.996251
-0.02719529 0.01183401 0.01351966 -0.0657988 0.0413487 0.996886
-0.02361686 0.02031662 0.01351475 -0.0978264 0.0588219 0.993459
-0.01981929 0.02310888 0.01372337 -0.0751452 0.0451341 0.996108
-0.01846748 0.0266995 0.01368726 -0.0946225 0.0551295 0.993914
-0.01660234 0.02953045 0.01374499 -0.0779872 0.0415788 0.996012
-0.01453439 0.03358519 0.01370387 -0.0799881 0.0441569 0.995799
-0.01242901 0.03637722 0.01370595 -0.0887084 0.0493224 0.994815
-0.01068397 0.0398188 0.01365465 -0.0913376 0.0471726 0.994683
-0.008697981 0.04590123 0.01333533 -0.0815017 0.0860306 0.992937
-0.007347926 0.04909229 0.01319903 -0.10926 0.0441889 0.99157
-0.008090207 0.04238841 0.01369722 -0.0858065 0.0857218 0.992597
-0.004202179 0.04662448 0.01372362 -0.181335 0.0447902 0.982246
-0.008876421 0.0366981 0.01400176 -0.0830744 0.0643306 0.994445
-0.004589211 0.04307114 0.01393689 -0.0824627 0.0627449 0.994611
-0.001959251 0.04940783 0.01373245 -0.140005 0.214004 0.966094
0.0005258508 0.05228361 0.01367839 -0.0816249 0.108134 0.990759
-0.004193635 0.05209072 0.0123445 -0.397626 0.846061 0.353418
0.004193365 0.05652063 0.01254684 -0.478786 0.853889 0.203177
-0.0004194128 0.05413132 0.01088385 -0.439198 0.897816 -0.0128947
0.00313874 0.05586941 0.009305804 -0.449173 0.888826 -0.0906988
0.006963206 0.05793789 0.0105456 -0.453209 0.889319 -0.0551263
0.01070382 0.05964503 0.009181821 -0.443827 0.890299 -0.101738
0.01562075 0.06224286 0.01030531 -0.43674 0.889231 -0.13611
0.01885225 0.06379872 0.01044569 -0.409505 0.897529 -0.163366
0.02161619 0.06533424 0.01179315 -0.45372 0.878173 -0.14941
0.01340649 0.06128047 0.01258023 -0.420717 0.904958 -0.0571664
0.009873204 0.05927669 0.01344863 -0.476825 0.764859 0.42775
0.01934463 0.06391408 0.01420359 -0.313519 0.507644 0.798442
0.01705588 0.06095323 0.01438161 -0.128455 0.110789 0.985433
0.008933073 0.05611649 0.0140869 -0.0792204 0.122517 0.989286
0.01379586 0.05846048 0.01432385 -0.104707 0.0403018 0.993407
0.004211482 0.0521871 0.01409303 -0.101914 0.120737 0.987102
0.007786066 0.05293093 0.01430074 -0.0481624 0.0913629 0.994304
0.01224706 0.05534574 0.01443672 -0.0239664 -0.0100413 0.999477
0.002308635 0.04848894 0.01411704 -0.112955 0.0589394 0.99133
-8.55197e-06 0.04547378 0.01414548 -0.0175246 -0.0232663 0.999504
-0.007102711 0.03014148 0.01447587 -0.0718781 0.0484541 0.996149
-0.0131856 0.03060063 0.01395789 -0.0806531 0.058059 0.995047
-0.009977212 0.03221451 0.01412467 -0.0601527 0.0559793 0.996604
-0.005684841 0.03902049 0.01411796 -0.0921611 0.0801518 0.992505
-0.002472842 0.03997529 0.01427483 -0.0863127 0.0602729 0.99441
-0.005115929 0.03362781 0.01443796 -0.0691894 0.0780195 0.994495
-0.001366515 0.03632732 0.01462592 -0.0723631 0.0703043 0.994785
0.001972801 0.04108502 0.01457687 -0.0510402 0.0752835 0.995849
0.003745968 0.0451831 0.0144545 -0.0918041 0.0961894 0.99109
0.006819264 0.04891013 0.01442226 -0.0630259 -0.00014903 0.997774
0.007126599 0.04537814 0.01471673 -0.0767844 0.0228981 0.996754
0.002255237 0.03571118 0.01486488 -0.0461883 0.0272264 0.998561
-0.0007822019 0.03241281 0.01477805 -0.0497932 0.0192665 0.998569
-0.0133321 0.02617976 0.01418018 -0.0662784 0.0318688 0.997267
-0.0162752 0.02414377 0.01401856 -0.0646284 0.0294432 0.997436
-0.02025951 0.01935411 0.01382861 -0.0728234 0.0368887 0.996653
-0.02360731 0.0142848 0.01371325 -0.0727419 0.0342764 0.996741
-0.02485888 0.009237973 0.01374192 -0.0369159 0.0393629 0.998281
-0.01982873 0.01559369 0.01398344 -0.0753945 0.0388648 0.996389
-0.02145608 0.0115539 0.01398448 -0.0735236 0.0263375 0.9969
-0.02639576 0.005288504 0.01377465 -0.0695355 0.0103123 0.997525
-0.03150313 -0.002017074 0.01352942 -0.0911242 -0.000535175 0.995625
-0.03310017 -0.007103899 0.01351192 -0.0802692 -0.0216338 0.996522
-0.03430054 -0.0121063 0.01334588 -0.0684019 0.00733311 0.997522
-0.03153861 -0.01005417 0.01361846 -0.0520495 -0.00553656 0.998596
-0.03093639 -0.01349624 0.01363962 -0.0781538 -0.00628272 0.99686
-0.02928029 -0.01663456 0.0136957 -0.0549355 -0.016477 0.998346
-0.02809795 -0.01975147 0.01370196 -0.0651754 -0.02017 0.997667
-0.02714302 -0.02471464 0.01363349 -0.046031 -0.028156 0.998479
-0.02359293 -0.03091836 0.01361336 -0.0312945 -0.0465194 0.998358
-0.02125579 -0.04188179 0.01326573 -0.0393789 -0.0177196 0.999028
-0.02167721 -0.03419632 0.0135389 -0.0524204 -0.0383265 0.997848
-0.01757819 -0.0429767 0.01330366 -0.0683701 -0.03342 0.99675
-0.01613893 -0.03935707 0.01348182 -0.0142685 -0.0721695 0.997234
-0.01399893 -0.04484371 0.01324518 0.0189703 -0.117626 0.992796
-0.006512098 -0.04338856 0.01336776 -0.000760817 -0.0596641 0.998203
-0.002887575 -0.04374226 0.01335173 0.00203682 -0.0435814 0.999047
0.001362857 -0.04172209 0.0134898 0.0144478 -0.0394154 0.999117
0.002423111 -0.03853593 0.01369663 -0.00419335 -0.072383 0.997352
-0.001482152 -0.03983032 0.01358254 0.0192145 -0.0562076 0.998192
0.006592736 -0.03742227 0.01374984 0.00196847 -0.0575925 0.998253
0.01083054 -0.03684968 0.01382027 -0.00172757 -0.0633151 0.997904
0.01408682 -0.03517574 0.01395606 -0.00120088 -0.0753959 0.99714
0.01789312 -0.03584998 0.01378012 0.0879827 -0.343306 0.934301
0.02242496 -0.03349706 0.01407901 0.127088 -0.377414 0.913911
0.02654941 -0.03208836 0.01267909 0.526462 -0.840601 0.0262576
0.0296212 -0.03023437 0.01235374 0.489764 -0.871541 0.0104447
0.03295689 -0.02839535 0.01048371 0.501044 -0.864688 -0.0354368
0.0387403 -0.02531672 0.01200061 0.509109 -0.860051 -0.00425988
0.04223131 -0.02338039 0.01382863 0.45791 -0.837602 0.293725
0.03419403 -0.02706472 0.01433831 0.301244 -0.624913 0.718458
0.03720486 -0.02478248 0.01493008 0.0904225 -0.182948 0.977602
0.04423769 -0.0205727 0.01522701 0.00877194 -0.0637951 0.9978
0.0389463 -0.02114117 0.01512758 0.00239119 -0.0891298 0.995906
0.02877848 -0.02710032 0.01467676 -0.0333052 -0.0440338 0.998472
0.02135576 -0.02974973 0.01437201 -0.0273668 -0.0647077 0.997525
0.01090022 -0.03334606 0.01403722 -0.0053381 -0.0575058 0.998325
0.006923052 -0.0336282 0.01399645 -0.00519011 -0.0591074 0.998217
0.002432381 -0.03443275 0.01394456 -0.000208317 -0.0667968 0.99775
-0.004696893 -0.03826083 0.01367529 0.00819726 -0.0420282 0.999067
-0.01024777 -0.04236474 0.01338753 0.0129154 -0.0551952 0.997976
-0.008043752 -0.03839903 0.01363071 -0.00784164 -0.0680741 0.997623
-0.01225494 -0.03922724 0.01355212 0.00538545 -0.0449296 0.998941
-0.01436877 -0.03633844 0.01365439 -0.0231427 -0.0230485 0.999457
-0.01629036 -0.03308612 0.01375857 -0.0407116 -0.0518472 0.997796
-0.01984815 -0.02888698 0.0138132 -0.0138692 -0.0330365 0.999298
-0.01166688 -0.0344266 0.01381196 -0.0356493 -0.0479528 0.998206
-0.01648645 -0.02888052 0.01394182 -0.0266883 -0.0498527 0.998399
-0.02293905 -0.02697827 0.01376242 -0.0464533 -0.0573237 0.997236
-0.02353733 -0.02255975 0.01387342 -0.0494471 -0.0327415 0.998213
-0.02361369 -0.0191843 0.0139563 -0.0500968 -0.0226379 0.998483
-0.02723232 -0.01407622 0.01384179 -0.0578344 -0.00985015 0.998275
-0.02831466 -0.0086047 0.01377493 -0.0811981 -0.00897533 0.996643
-0.02832071 -0.003201722 0.01378887 -0.103558 0.00980489 0.99454
-0.02671723 0.00123745 0.01380505 -0.0528304 0.0125928 0.998498
-0.02356603 0.00321063 0.01400636 -0.0704811 0.0151375 0.997327
-0.02360957 -8.386577e-05 0.01407129 -0.0583171 0.005162 0.998189
-0.0250828 -0.003798357 0.01400242 -0.0499336 0.0167695 0.998605
-0.02457748 -0.00715647 0.01401852 -0.0267708 -0.00335407 0.999621
-0.02447055 -0.01045313 0.01404458 -0.0644172 0.00633969 0.99785
-0.02144255 -0.008207017 0.01421398 -0.0607837 -0.00304773 0.998145
-0.02138904 -0.01204965 0.01416823 -0.0415105 -0.0135155 0.999045
-0.02256265 -0.01589709 0.0140569 -0.0358236 -0.0159851 0.999229
-0.01816069 -0.02125935 0.01409848 -0.0394586 -0.0319197 0.998675
-0.01808947 -0.02461424 0.01401824 -0.0316556 -0.0235138 0.999217
-0.01237045 -0.02981718 0.01399908 -0.019008 -0.0341 0.999233
-0.007435996 -0.03186019 0.01399525 -0.0151256 -0.049572 0.998635
-0.005458429 -0.03499264 0.01383876 0.000563494 -0.0490961 0.998766
-0.001569878 -0.03441529 0.01390859 -0.0150313 -0.0635804 0.997819
-0.0007506759 -0.03116703 0.01412488 0.0440034 -0.0341838 0.998332
0.01367531 -0.02980725 0.01427283 -0.0259485 -0.0662208 0.997463
0.007104783 -0.0302674 0.01419747 -0.00700692 -0.0563348 0.998385
0.01030271 -0.02916009 0.01428636 0.0121577 -0.056248 0.998337
0.01790897 -0.03010296 0.01432132 -0.00304008 -0.054624 0.998488
0.02467712 -0.02962987 0.01444967 -0.0180372 -0.033382 0.999242
0.01847466 -0.02685869 0.01449378 -0.0174957 -0.0453527 0.998762
0.01460051 -0.02610606 0.01451447 -0.0213087 -0.0595233 0.997981
0.002023219 -0.02873909 0.01425355 -0.0111221 -0.0589699 0.998189
-0.004394851 -0.03037167 0.01410774 -0.0184695 -0.0362246 0.99912
-0.008545741 -0.02870814 0.01410317 -0.0484884 -0.0392173 0.998034
-0.01279127 -0.02396086 0.01423398 -0.031054 -0.0536567 0.998014
-0.009580728 -0.02530026 0.01425615 -0.0355919 -0.0492096 0.998143
-0.006061984 -0.02508875 0.01434517 -0.0291738 -0.0419901 0.998689
-0.002312816 -0.02709774 0.01430619 -0.0240283 -0.0791925 0.996538
0.002271019 -0.02529167 0.01443127 -0.00101324 -0.0550839 0.998479
0.006172472 -0.02491947 0.01446798 -0.0142297 -0.0568896 0.998259
0.0101616 -0.02474182 0.01452476 -0.00558942 -0.0484641 0.998806
0.006135997 -0.02126986 0.01467394 0.00417715 -0.0723397 0.997359
0.0175573 -0.02329185 0.0147185 -0.0131657 -0.0561011 0.998336
0.02210255 -0.02595928 0.0146041 -0.0252749 -0.069908 0.997232
0.02551092 -0.02615485 0.01467285 -0.0171891 -0.0464197 0.998766
0.02489959 -0.02259803 0.01485589 -0.00792629 -0.0519258 0.99861
0.02838633 -0.02374389 0.01484347 -0.0198655 -0.0479076 0.998653
0.02064942 -0.02165785 0.01484388 -0.0161675 -0.0587767 0.998135
0.01444307 -0.02133884 0.01478101 -0.00938589 -0.0494215 0.998728
0.00978093 -0.02019743 0.01478349 -0.00640675 -0.0530258 0.998546
0.000390738 -0.02116455 0.01460971 -0.0118035 -0.0420692 0.999034
-0.003228121 -0.02169882 0.01454857 -0.0202856 -0.0496542 0.998556
-0.007173741 -0.02135945 0.01447379 -0.0245728 -0.0345174 0.999096
-0.01378015 -0.02058566 0.01425535 -0.0478086 -0.0381617 0.998058
-0.01770408 -0.01701806 0.01421869 -0.045327 -0.026535 0.998616
-0.01689223 -0.01375385 0.01434041 -0.0538111 -0.0287492 0.998125
-0.01393787 -0.01688421 0.01439113 -0.0381163 -0.0304292 0.998785
-0.01026665 -0.01934481 0.01447532 -0.0307858 -0.0329671 0.998945
-0.01098009 -0.01480623 0.01458681 -0.0380775 0.00699051 0.999216
-0.01806642 -0.008189862 0.01437221 -0.0470022 -0.0189374 0.99869
-0.02039883 -0.004698932 0.0142567 -0.0483623 -0.00553642 0.998789
-0.01999379 -0.0006530724 0.01426104 -0.0405902 0.011615 0.999106
-0.02189979 0.00618987 0.01401843 -0.0933492 0.0428783 0.994681
-0.01846506 0.00977444 0.01424924 -0.0621716 0.0334865 0.9975
-0.01666895 0.01473108 0.01422552 -0.0774339 0.0262675 0.99664
-0.01678828 0.01949766 0.01407429 -0.0615882 0.0247891 0.997777
-0.01332746 0.01812627 0.01436989 -0.0876863 0.0292479 0.995672
-0.01197981 0.02303531 0.01436177 -0.0725769 0.0147308 0.997253
-0.01318678 0.01465712 0.01444203 -0.0688957 0.0577044 0.995855
-0.009505823 0.02655263 0.01442114 -0.0553213 0.0210039 0.998246
-0.008583839 0.02316285 0.01458278 -0.0582488 0.0286634 0.99788
-0.01028008 0.01953254 0.01455702 -0.0664446 0.00311492 0.997666
-0.01533943 0.010987 0.01439752 -0.0690479 0.0128534 0.997518
-0.01996635 0.003359194 0.01420128 -0.0817807 0.00622219 0.996582
-0.01632117 0.006577454 0.0144256 -0.0686594 0.0320118 0.997112
-0.01602489 0.002791962 0.01447493 -0.0635754 0.00396565 0.997961
-0.01638368 -0.001541917 0.01443766 -0.0606329 0.0054925 0.998144
-0.01559999 -0.005043878 0.01452436 -0.0466107 -0.00642573 0.998887
-0.01455384 -0.008266138 0.0145446 -0.0356872 -0.00321448 0.999357
-0.01320308 -0.01195296 0.01455033 -0.0485091 -0.0202908 0.99861
-0.01108235 -0.009202447 0.01468842 -0.0390384 -0.0219412 0.998987
-0.008494877 -0.01240247 0.01473175 -0.0171137 -0.0206621 0.999627
-0.007877132 -0.01630865 0.01464079 -0.0461931 -0.0293174 0.998501
-0.004712495 -0.01833908 0.01464424 -0.0263644 -0.0261893 0.999295
-0.004223694 -0.01361659 0.01480955 -0.0206781 -0.0255002 0.999453
-0.001172692 -0.0167305 0.01477944 -0.0258415 -0.022377 0.999409
0.002252456 -0.01795534 0.014776 -0.0195415 -0.034383 0.999206
0.007006044 -0.0180641 0.01484152 -0.0155328 -0.0433227 0.998936
0.002672527 -0.01419332 0.01492208 -0.0230637 -0.0276707 0.999349
-0.000369417 -0.01284889 0.0149121 -0.0235333 -0.0245029 0.999408
-0.004985283 -0.0102683 0.01487075 -0.027384 -0.0196779 0.999427
-0.00890534 -0.006725422 0.01479642 -0.0382937 -0.0161254 0.999118
-0.01209917 -0.004820042 0.01468359 -0.0330884 0.000698798 0.999448
-0.01329877 -0.0002065447 0.01461391 -0.0378552 -0.00661302 0.999217
-0.01266521 0.004480915 0.01464201 -0.054856 0.0134837 0.998402
-0.013169 0.007834279 0.01458332 -0.0485103 0.0172065 0.998664
-0.01184007 0.01104236 0.0146087 -0.0600979 0.0343722 0.997573
-0.009151745 0.0154272 0.01470149 -0.0764913 0.00650596 0.997004
-0.008685343 0.01215857 0.01473549 -0.0825242 0.0104026 0.996501
-0.009682699 0.008274128 0.01474991 -0.0817959 0.00261968 0.99655
-0.009550409 0.002249957 0.01479778 -0.0736608 -0.00623733 0.997198
-0.00987234 -0.001774937 0.0148047 -0.0385878 -0.00700631 0.99922
-0.006569498 -0.003616805 0.01491811 -0.0448305 -0.00838989 0.998953
-0.00471837 -0.006364677 0.01496112 -0.0392055 -0.0113511 0.999163
-0.002024348 -0.008845313 0.01497471 -0.0283011 -0.0166405 0.999456
-0.003149649 -0.002149827 0.01504604 -0.0348651 0.00218074 0.999371
-0.005449424 0.002247144 0.01500295 -0.0376046 -0.00826648 0.999209
-0.006082023 0.00660431 0.01495823 -0.0141544 0.0234799 0.999584
-0.006639766 0.01974407 0.0147748 -0.0686414 0.0252617 0.997316
-0.005469259 0.0270274 0.01465675 -0.0595155 0.0277062 0.997832
-0.003425221 0.02973903 0.01471907 -0.0559165 0.0231036 0.998161
-0.005038096 0.02321451 0.01477942 -0.0548963 0.0187522 0.998302
-0.001311275 0.02655314 0.01491969 -0.056195 0.00644375 0.998393
-0.005120331 0.01668948 0.0148805 -0.0521759 0.00981841 0.998585
-0.003414573 0.01359817 0.01503941 -0.0301771 0.00183374 0.999518
-0.004358502 0.01007322 0.01501265 -0.0757152 -0.0173354 0.996936
-0.002965146 0.005384689 0.01510157 -0.0505596 0.0177626 0.998559
-0.0003309484 0.01058586 0.01517688 -0.0320786 -0.0181025 0.999315
-0.001021964 0.002541519 0.01516641 -0.0322889 -0.0124345 0.999395
0.0006005344 -0.002932784 0.01517208 -0.0285839 -0.0198124 0.999391
0.0006394856 -0.006404039 0.0151063 -0.0213388 -0.0250967 0.99945
0.00284012 -0.01032721 0.01505236 -0.00850622 -0.027162 0.999585
0.006384036 -0.01247243 0.01506231 -0.00554957 -0.0229916 0.999712
0.00977669 -0.01530998 0.0150291 -0.0144811 -0.0530602 0.998478
0.01273433 -0.01725771 0.01495944 -0.00741978 -0.0339727 0.999386
0.01809215 -0.01882047 0.0149438 -0.0183744 -0.051267 0.998509
0.02278598 -0.01792588 0.01505214 -0.0048045 -0.0435423 0.999017
0.02622548 -0.01944907 0.01502409 0.00196293 -0.0405867 0.999171
0.03204086 -0.02101101 0.01504088 -0.00667982 -0.040321 0.999151
0.03574765 -0.02017661 0.01513424 -0.00240811 -0.0397564 0.999202
0.03312862 -0.0168563 0.01524411 -0.0215064 -0.0504266 0.998481
0.0289437 -0.01747255 0.01515267 -0.0200922 -0.0495916 0.998564
0.02585818 -0.01531489 0.01520093 -0.0131972 -0.0576118 0.998246
0.01815844 -0.01544033 0.01511528 -0.0171378 -0.04477 0.998847
0.01479565 -0.01340713 0.01515349 -0.0149133 -0.0497954 0.998646
0.009931665 -0.01072665 0.01518118 -0.029471 -0.032572 0.999004
0.00734145 -0.008711149 0.01519145 -0.0290833 -0.00930419 0.99946
0.004176692 -0.006494811 0.0151974 -0.0258303 -0.022176 0.99942
0.006567305 -0.004141048 0.01530216 -0.0168981 -0.0357167 0.999201
0.01064626 -0.006069943 0.01534176 -0.0113172 -0.0205972 0.999718
0.0134455 -0.008398108 0.0153297 -0.0155113 -0.0397296 0.999086
0.01889336 -0.01141888 0.0153077 -0.022173 -0.0404544 0.998927
0.02247496 -0.01436215 0.01522142 0.00696841 -0.0266065 0.999562
0.02974285 -0.01346929 0.01535423 -0.0095089 -0.0465516 0.998833
0.03326596 -0.01351095 0.01539404 -0.00726452 -0.0496413 0.998737
0.03687672 -0.01553014 0.01535037 -0.00531046 -0.0238818 0.999678
0.0398846 -0.01724165 0.01529408 -0.0793913 -0.0616987 0.993887
0.02701777 -0.01028135 0.01543689 -0.0111606 -0.0405704 0.999102
0.02289073 -0.007976172 0.01550064 -0.0016157 -0.0390287 0.999224
0.01675046 -0.008552898 0.01538883 -0.00676131 -0.0254196 0.999632
0.02011853 -0.005761001 0.01553551 -0.00820691 -0.0295455 0.999495
0.01688161 -0.005053006 0.01547697 -0.00971313 -0.0150014 0.999835
0.0134932 -0.004228298 0.0154281 -0.0289912 0.00173724 0.999533
0.003985076 -0.00155862 0.01529033 -0.0229585 -0.0158617 0.999609
0.002227684 0.001635465 0.01527665 -0.0191075 -0.00925951 0.999768
0.0007209219 0.006478994 0.01524668 -0.0422608 0.000825017 0.999105
0.0005736097 0.01455645 0.01518888 -0.0506924 0.0110464 0.998645
-0.001626103 0.0201169 0.01502066 -0.0470842 0.012309 0.99881
-0.0004065048 0.02330089 0.01501164 -0.0429338 0.0289957 0.998571
0.002269251 0.03004776 0.01504892 -0.0436788 0.00472167 0.998961
0.002302022 0.02657021 0.01510715 -0.0991293 0.0487455 0.993855
0.0046939 0.03263852 0.01511861 -0.0476317 0.0684623 0.996514
0.006563853 0.0410321 0.01489721 -0.0751439 0.0512391 0.995767
0.00550621 0.03704867 0.01500293 -0.0513104 0.0108105 0.99861
0.005704487 0.02922182 0.01523368 -0.0514229 0.0279363 0.998254
0.009082804 0.03207409 0.01533839 -0.0478771 0.00196099 0.998846
0.002985886 0.02277519 0.01520501 -0.0494547 0.0188746 0.99844
0.002439961 0.01797348 0.01523067 -0.0194866 0.0173136 0.999598
0.006437308 0.02577185 0.01531504 -0.0501573 0.0245542 0.998411
0.005140371 0.02008486 0.01532158 -0.0538363 -0.00623733 0.998415
0.003916726 0.01354204 0.01536792 -0.036017 0.0135872 0.999219
0.003034927 0.01019231 0.01530277 -0.0421502 -0.00364049 0.999067
0.005664632 0.006073987 0.01540064 -0.0292004 -0.0106168 0.999515
0.007164218 0.001803209 0.01541914 -0.0239724 -0.012862 0.999625
0.008522178 -0.001242312 0.01539813 -0.0239252 -0.0232876 0.999438
0.01051842 0.001994079 0.01550197 -0.0194299 -0.0135703 0.999697
0.01295121 -0.0006821855 0.0154946 -0.0195847 -0.00205776 0.999649
0.008854534 0.005302108 0.01550545 -0.0153074 -0.00908751 0.999816
0.007219742 0.009496107 0.01547137 -0.033232 -0.00388948 0.999419
0.006209615 0.01640661 0.01543264 -0.0207474 0.0198537 0.999471
0.008862661 0.02076626 0.01548613 -0.0316055 0.0127624 0.999418
0.01001757 0.02466815 0.01547693 -0.0442519 0.0160121 0.998879
0.009686531 0.03612014 0.01521501 -0.0707278 -0.00770341 0.997354
0.009988083 0.04005341 0.01515227 -0.0554055 0.042863 0.997533
0.0104746 0.04684584 0.01483441 -0.0709487 0.0717579 0.994891
0.01015451 0.05036725 0.01452855 -0.0924327 -0.0053774 0.995603
0.01327372 0.04869437 0.01489761 -0.0586831 0.0462012 0.997196
0.01493336 0.05329426 0.01469981 -0.0363504 0.0442809 0.997961
0.0177719 0.05645443 0.01472895 -0.0610102 0.0361554 0.997385
0.02109553 0.059568 0.01476035 -0.0606613 -0.00787504 0.997901
0.0185126 0.05277994 0.01497363 -0.06611 0.0312674 0.997322
0.01712452 0.04782891 0.01517167 -0.0535654 0.050926 0.997242
0.01364511 0.04401883 0.01516905 -0.0641057 0.0458104 0.996888
0.0139613 0.04048717 0.015329 -0.0418379 0.0401498 0.998306
0.01769145 0.04256681 0.01539655 -0.0369592 0.0358083 0.99867
0.0200361 0.04953781 0.01521484 -0.0296703 0.0363692 0.998879
0.02174709 0.05411237 0.01508128 -0.0511066 0.0533444 0.997033
0.02387119 0.06364974 0.01467703 -0.0362927 0.0641927 0.997247
0.0256528 0.06084364 0.0148991 -0.0442767 0.0287485 0.998471
0.02445266 0.0569616 0.01495697 -0.0474156 0.108963 0.992351
0.0293711 0.06106109 0.01441346 0.671827 0.329029 0.653127
0.03039926 0.05731374 0.01489518 0.190649 0.116992 0.970963
0.03331627 0.05287965 0.0145817 0.614111 0.359188 0.702349
0.03666054 0.04744539 0.01394516 0.786204 0.413179 0.459404
0.03621602 0.04994009 0.01181769 0.857651 0.489815 0.156456
0.03787747 0.04727527 0.01048103 0.880098 0.451521 0.146172
0.03857399 0.04469668 0.0131254 0.851709 0.437694 0.287791
0.04261128 0.03775947 0.01224204 0.883306 0.439559 0.162922
0.04519778 0.03298255 0.01185607 0.864347 0.479353 0.15199
0.0481905 0.02731406 0.0119939 0.870991 0.470718 0.140616
0.05109547 0.02276858 0.009133333 0.872619 0.473079 0.120945
0.05465988 0.01628104 0.00861475 0.87043 0.479519 0.111387
0.05897888 0.009149328 0.002130259 0.883737 0.46601 0.0423485
0.05967883 0.007547102 0.004934547 0.883842 0.46405 0.0582203
0.06161591 0.00400688 0.003727853 0.888161 0.456186 0.0547211
0.06375118 -0.000301387 0.00487417 0.884905 0.460976 0.0665688
0.06603736 -0.004556429 0.00407461 0.874302 0.477793 0.0779599
0.06189232 0.002980244 0.006937956 0.882344 0.463898 0.0789233
0.06028544 0.005892072 0.00777909 0.879298 0.467503 0.0908804
0.05784132 0.01083524 0.00629164 0.872123 0.483832 0.0719066
0.05638713 0.01301364 0.008873866 0.8757 0.468442 0.116239
0.05899261 0.007761695 0.01035195 0.870912 0.47641 0.120358
0.06069808 0.004376166 0.01091899 0.883724 0.450442 0.127008
0.06238954 0.00133091 0.01014134 0.885306 0.447478 0.126444
0.06431758 -0.002026634 0.00852845 0.88168 0.458472 0.111523
0.06716433 -0.007811255 0.009230012 0.984574 0.0263004 0.00355804
0.06715326 -0.008750933 0.01460763 0.932908 0.224091 0.185374
0.06595748 -0.00590028 0.01170091 0.913607 0.392796 0.0982942
0.06373914 -0.002175451 0.01312265 0.882661 0.449124 0.138199
0.0616392 0.001897478 0.01367449 0.882488 0.44493 0.149441
0.05885283 0.006987252 0.01381606 0.857051 0.460781 0.229741
0.05700816 0.01105762 0.01150393 0.861732 0.486282 0.144646
0.05467796 0.01517554 0.01231576 0.879306 0.456308 0.136264
0.05284671 0.0184701 0.01276987 0.871121 0.466396 0.153217
0.05004133 0.02346717 0.01333347 0.863031 0.457332 0.214033
0.04655094 0.0292142 0.01413298 0.781716 0.438131 0.443455
0.04397134 0.03208857 0.01510861 0.461294 0.296572 0.835542
0.04246822 0.03524041 0.01506458 0.446917 0.23063 0.862725
0.03888131 0.04088446 0.01508991 0.0454392 0.115012 0.990358
0.03363139 0.04905937 0.01512135 0.0398415 0.00708258 0.999114
0.0358692 0.04421101 0.01518803 0.122017 0.0772945 0.98865
0.03898681 0.03699525 0.01532202 0.0404877 0.0473554 0.997961
0.03499048 0.03873729 0.01548044 0.0664806 0.0150097 0.997661
0.03956017 0.03361733 0.01544364 0.0761218 0.0110464 0.99696
0.04613369 0.02510594 0.01548219 0.0352815 0.037401 0.998674
0.04376774 0.02751832 0.01552472 0.0682782 0.0418915 0.996764
0.05044455 0.02069051 0.01509543 0.557888 0.320508 0.764802
0.05440214 0.01344835 0.01514901 0.606961 0.364032 0.705197
0.05647264 0.009864984 0.01507876 0.693462 0.320383 0.644851
0.05886548 0.00261345 0.01582129 0.0440878 0.0370298 0.998131
0.05563912 0.005767978 0.01578823 0.054059 0.0219679 0.998291
0.05996697 -0.002197768 0.01594218 -0.0382321 0.0199263 0.999058
0.0455661 0.006327762 0.01601565 0.0162738 -0.00267752 0.999853
0.0558731 7.260223e-05 0.01587657 0.000361379 -0.0493638 0.998449
0.05887969 -0.01165576 0.01589745 -0.0246852 -0.0205009 0.999451
0.04943637 -0.01729873 0.01549029 -0.0312001 -0.0289591 0.998732
0.04513333 -0.01736677 0.01540606 -0.0195814 -0.0235613 0.999493
0.04020014 -0.01333106 0.01549631 0.00660245 -0.0539029 0.998479
0.04847263 -0.01414698 0.015576 -0.0417339 -0.0129785 0.999008
0.03304319 -0.01021367 0.01554867 -0.00682273 -0.046477 0.998852
0.03726958 -0.01061023 0.01557288 -0.0113542 -0.0480008 0.99867
0.04537294 -0.01254288 0.01560756 -0.0186526 -0.0508713 0.998478
0.04106231 -0.00957655 0.01566029 -0.00668711 -0.0374479 0.999246
0.05215451 -0.01391624 0.01566128 -0.00839944 -0.0613554 0.998019
0.05460554 -0.01637138 0.01512473 0.275315 -0.770141 0.573322
0.05750854 -0.01526927 0.0140463 0.463938 -0.878412 0.108697
0.0604583 -0.01376233 0.0138081 0.454237 -0.886265 0.0856535
0.06573477 -0.01049644 0.01167305 0.663304 -0.742875 -0.0855319
0.06386006 -0.01144607 0.01548209 0.353528 -0.800683 0.482062
0.05545156 -0.01309144 0.01580228 -0.02806 -0.0365072 0.997773
0.04873953 -0.009890479 0.01574501 -0.017538 -0.0448623 0.998819
0.05250494 -0.01057019 0.0157483 -0.0104547 -0.028017 0.999537
0.04498547 -0.0075621 0.01575854 -0.0226625 -0.038614 0.998994
0.03679571 -0.006807584 0.01570662 -0.0177563 -0.0314354 0.999342
0.02861779 -0.006036971 0.01564988 -0.0220756 -0.0471675 0.998618
0.02538718 -0.004915156 0.01563468 0.00298556 -0.0367309 0.99929
0.03266065 -0.006172306 0.01566838 -0.013482 -0.0445036 0.998912
0.02885423 -0.002343484 0.01576018 -0.00897677 -0.0379138 0.999218
0.0239524 -0.000941772 0.01572469 -0.0211373 -0.0259872 0.999409
0.01664318 -0.0008302407 0.01561442 -0.0114632 -0.0340476 0.999327
0.02084583 0.001942496 0.01573118 -0.0273468 -0.0348381 0.998997
0.01780347 0.003232665 0.01569785 -0.0262956 -0.0227014 0.999393
0.01441492 0.005797555 0.01566764 -0.0252074 -0.00264871 0.999674
0.0105954 0.009107148 0.015573 -0.0267546 -0.00247378 0.999635
0.009591782 0.01307659 0.01556448 -0.065877 0.00240444 0.997771
0.009933239 0.01698275 0.01553892 -0.0261549 -0.00776215 0.999549
0.01306528 0.01152944 0.0156605 -0.0241977 -0.000893877 0.999694
0.0135878 0.01918914 0.01564988 -0.0320625 -0.00117067 0.999476
0.01308898 0.02304047 0.01562377 -0.0373547 0.0108991 0.999241
0.01205122 0.03016571 0.01547876 -0.0362652 0.00840401 0.999273
0.01296906 0.03387998 0.01546005 -0.0224153 -0.0056596 0.999712
0.01489614 0.02833134 0.01564229 -0.0375245 0.00640614 0.999222
0.01448616 0.03696264 0.01544343 -0.0431729 0.00116644 0.999054
0.0175602 0.03335573 0.01557423 -0.024182 0.0212211 0.999284
0.01893257 0.03817574 0.01556629 -0.0245402 0.0167536 0.999555
0.0199366 0.04534701 0.01537781 -0.031793 0.0507315 0.998199
0.023113 0.04826318 0.01535082 -0.0260854 0.0457581 0.998591
0.02618454 0.0536557 0.01512952 -0.0185714 0.030721 0.999047
0.03011663 0.05359813 0.01508246 0.0163463 0.0208547 0.999556
0.02978474 0.04963002 0.01525997 0.037025 0.0316312 0.998674
0.0315064 0.04643389 0.01535487 0.0506996 0.047224 0.997567
0.03216699 0.04276857 0.01545344 0.0549722 0.046506 0.997319
0.02639781 0.04930861 0.0153471 -0.0101104 0.0620126 0.997965
0.02668042 0.04527402 0.01549618 -0.00664547 0.0418358 0.99909
0.0233616 0.04431117 0.01550277 -0.0114297 0.0187371 0.999753
0.02100676 0.04121027 0.01554052 -0.020036 0.0388462 0.999034
0.02599047 0.04159145 0.01559613 -0.00242716 0.0361523 0.999328
0.02926915 0.0410645 0.01559515 0.0210676 0.0199933 0.999575
0.03137494 0.0381063 0.01562992 0.0460459 0.0303851 0.998468
0.03621673 0.03420784 0.01558902 0.0454333 0.0477356 0.997813
0.03292784 0.03499076 0.01567389 0.0312439 0.0265573 0.999119
0.03748575 0.03036676 0.01570743 0.0167857 0.0439632 0.998854
0.04074148 0.02878984 0.01562063 0.0553688 0.0326328 0.997912
0.04203801 0.02420561 0.01572415 0.0464818 0.0409012 0.998069
0.04612319 0.02112397 0.0156532 0.0576775 0.0407693 0.997482
0.05154621 0.01625063 0.01558738 0.0665716 0.0423269 0.996837
0.04858404 0.01796428 0.01567977 0.0360497 0.0493686 0.998101
0.04462198 0.01784793 0.01582951 0.0326514 0.0368245 0.998785
0.04173142 0.02080712 0.01584285 0.0147933 0.0272675 0.999516
0.03666193 0.02675405 0.01581239 0.0218701 0.013454 0.999657
0.03821475 0.02199384 0.015912 0.0250847 0.0301025 0.999208
0.0332009 0.02987392 0.01580378 0.0192938 0.0289639 0.999387
0.02896444 0.03522282 0.01575149 0.0052673 0.0149305 0.999848
0.02705108 0.03788728 0.01568754 -0.00288475 0.0211367 0.999767
