0.03913146863264648 -0.04629773401402988 0.17677864180285088 -0.0031060945272621755 0.01327132578134745 0.9999071077299095 0.4600342888292805
0.041667797556449365 -0.05062065459489855 0.17465018501621 0.006530124536800465 -0.02651533501059699 0.9996270777058861 0.4752844884434772
0.042650259758325405 -0.05331617432202104 0.17672490426875914 -0.002815950898597402 0.013211454272235582 0.9999087597858863 0.4525872885882718
0.044182006506386644 -0.05707610854363295 0.17726100449548354 -0.014651389395815843 0.058414071681554214 0.9981849192501128 0.48408267154395146
0.04811022825929924 -0.0643115867836476 0.17610697487145663 -0.004776835188510219 0.018926550224748675 0.999809465619411 0.49416978197919825
0.047051247640939764 -0.06282436735349568 0.17964776408514502 -0.020640675032228918 0.09989467979646444 0.9947839039120887 0.4275154565969256
0.045505622843000956 -0.06097565435519374 0.17993096374660145 -0.03531563580942561 0.14799053297516307 0.9883580363497344 0.47034535178130243
0.044438643299575 -0.057443040510148514 0.18112396192554944 -0.021251854299387564 0.09801567737790684 0.9949579316116774 0.41572757645603503
0.04132678517203877 -0.05082938087629432 0.17873595265707876 -0.0072541762731757175 0.03218422785113949 0.999455628031692 0.46618451552331536
0.03944220477033205 -0.047115463625087145 0.18083761313523955 -0.0071393033743812374 0.031678931626442225 0.9994725987431249 0.45059500786617923
0.03754643594958624 -0.043092670253431484 0.1793301019646264 -0.0030079845673053815 0.013176625830176106 0.9999086601087992 0.4584295763315649
0.034816278620071334 -0.0394217309636137 0.18176926660842063 -0.026118689261014877 0.10105100800480933 0.9945383390561162 0.49606568375911747
0.03778103648316444 -0.04384538214759357 0.18301442291291323 -0.010440209181777045 0.04112939298402884 0.9990992818859424 0.48407676147925327
0.04073197084961063 -0.049704826240022336 0.18217403092551163 -0.00955392137743515 0.03874413497746924 0.9992034900815556 0.4785723303757164
0.04230984208145583 -0.05270108959649991 0.18196868378869585 -0.01026626030859396 0.04571501512322091 0.9989017675885652 0.4418789734132151
0.039637333491614496 -0.04801839559351562 0.18477075654308953 -0.01889052996233241 0.07992421826484995 0.9966219279207611 0.46229270268926187
0.041602038510886036 -0.05153499294725994 0.18552699550032514 -0.016560339849403725 0.0691237676720928 0.9974706310899017 0.470306153147492
0.04415314440589718 -0.05659388327663865 0.18423426678064425 -0.01791389467449994 0.0685398661597238 0.9974875333177844 0.5105654435928346
0.045993096046922886 -0.06066252427206476 0.18421307521921176 -0.026668913192414104 0.10669181291661509 0.993934417416814 0.49447274489371784
0.04960086503994769 -0.06689460695788924 0.18152327555119566 -0.007220023606690122 0.028787054218310872 0.9995594913603446 0.4999281327076187
0.06031719417376264 -0.07786902821538189 0.17849612349185534 -0.016122464766136366 0.01667121922451631 0.9997310321178556 1.347810474209148
0.06724636004486952 -0.07846831567786887 0.17881424638114088 0.020129700569141883 -0.02821744601734686 0.9993991049101729 1.3040763830133466
0.06216493358587819 -0.07839358596868312 0.18248116646164592 0.0009271012044145153 0.001921107476227372 0.9999977249121227 1.0773958088285789
0.05251381763596904 -0.07127525378078566 0.18478241676709428 -0.0007603948062610946 0.005901899671101804 0.9999822945332637 0.6984560012843988
0.04796312356381339 -0.06455026678850594 0.1861008526758239 -0.025095399563020794 0.10443889275824537 0.9942146340706336 0.5478375029591626
0.04539502905229259 -0.05969584394274692 0.1885597515913423 -0.03687828218459617 0.15528255181789233 0.987181503779339 0.49351705516608935
0.04303698797791428 -0.05635913608721859 0.1887154144456181 -0.05201890373126073 0.20630176468587555 0.9771047106334569 0.5089583811996012
0.04129217261454324 -0.05265511874311579 0.1909678261058278 -0.054707466893892845 0.227368512738473 0.9722708740269599 0.4867381558672933
0.03912327376563862 -0.048489034702966984 0.18979642326065518 -0.04734178157476303 0.20445184622493318 0.9777311482675306 0.4643601359496796
0.036574727568259836 -0.04243631603218698 0.18640720114825934 -0.027296588292636047 0.11690654172243206 0.9927677254877313 0.46383234606180185
0.03266552160836735 -0.03441810442593706 0.1836344964041885 -0.018355374041081004 0.07893619445864224 0.996710668874473 0.4589872735451799
0.031153822904411495 -0.030664648293555745 0.1806336888795667 -0.005091953252357016 0.02193966155944469 0.9997463294569942 0.4527680250263274
0.02872617437634542 -0.025594393081824325 0.18110049363999803 0.0016374553695757872 -0.007070344356164707 0.9999736641385102 0.45339846756134555
0.029169533747377248 -0.027327958123970535 0.18411352615324245 -0.012836793098982948 0.05384938803162622 0.9984665543479927 0.46389132420781276
0.030618354981789126 -0.03036497535491301 0.18432305012019956 -0.01766447787036083 0.07395426739466877 0.9971051762756451 0.4687067053082014
0.02780294299736661 -0.02497921762097623 0.18516225878827863 -0.018967003594074345 0.07819940318638657 0.9967572954917137 0.4770631982913721
0.026231758642291023 -0.0223624084375534 0.188030545455772 -0.027257924744584605 0.11590595752434953 0.9928861035128763 0.4665543601835519
0.024431281160788614 -0.018729728815352807 0.1873156552337137 -0.026000600852679998 0.11264484664765376 0.9932950756341371 0.45710538328579725
0.02234577606520969 -0.015733392483198046 0.19107866113382646 -0.05080921306960836 0.2091894567224867 0.9765542458375767 0.48426843587402085
0.02013222053738435 -0.011975928828511511 0.19237062949269546 -0.061089640460222916 0.2460178485998122 0.9673382417741794 0.5010725390596463
0.018384010480720834 -0.008086714078216338 0.19375006801647723 -0.057589093405315796 0.24319412835197574 0.9682665502101561 0.4788961739499839
0.014758348616774008 -0.0008161710061328223 0.19006870022124114 -0.04380928515867304 0.16968116898374302 0.9845247825353087 0.5180597584765894
0.01406038736318794 0.001276774325692088 0.19216495252650884 -0.038375600299548895 0.14960687490977426 0.9880005547981138 0.5092951123361614
0.01511751727848847 -0.001874888786348552 0.19455898476221556 -0.06162411806366113 0.24005502571938783 0.9688013484196543 0.5183660831555127
0.01695712460440387 -0.004139922424492196 0.19446772217749214 -0.045870105201576146 0.19015239224712893 0.9806824160611274 0.47814570459582834
0.012443972326826654 0.0039033874509427024 0.1946196745212255 -0.050484355878580474 0.19966006173659978 0.9785638403082663 0.5036815123182653
0.018477880769767332 -0.007268481721737699 0.19667115237864824 -0.05340662982773655 0.22320078790035805 0.9733083479407245 0.481930478287403
0.02121948219228441 -0.011999447910574055 0.19546134109485672 -0.042313019533741676 0.17050536253756957 0.9844478298639645 0.4956120952901021
0.021913160193018793 -0.015881309314157932 0.19594708651430107 -0.07752271732341269 0.3037769951557882 0.9495839960282156 0.5234508190484886
0.024594511696594563 -0.019570476637546685 0.1935793737652525 -0.05326998628947063 0.23263371361152727 0.971104455685396 0.4520974742835486
0.02809180975199531 -0.026051894264213612 0.1890062679438009 -0.03160921917699732 0.13625321234787038 0.9901696417220165 0.45855459638414303
0.029986220338964205 -0.03001064810580097 0.18872378808810203 -0.03655869515351737 0.15463644443630517 0.9872948049396237 0.4690493160613592
0.03344141758961729 -0.03705141917297679 0.18822711594247682 -0.04174574597680035 0.17261899573058526 0.984103640378291 0.48105980628261513
0.03529889308931736 -0.04014167473521297 0.18984810575722838 -0.038430652525373206 0.15924948160603447 0.9864900848739856 0.47934676331939624
0.0378375593098483 -0.04459809963514769 0.18794533295015922 -0.02569436231934624 0.10318101402156782 0.9943306683847597 0.49382586997987404
0.037471265887760924 -0.044623805527921105 0.19182606619863 -0.048179758113916386 0.19248269544922222 0.9801168924473684 0.500530060370328
0.039027236503058275 -0.04847085012789372 0.19367405001497875 -0.06167396098138052 0.295441671160792 0.9533679989797149 0.4397815709394309
0.0337368346322783 -0.03801734987753806 0.1932628467031344 -0.06104960737911189 0.2558190411776009 0.9647950889229427 0.4879612035292613
0.03187409746967853 -0.034545518262897645 0.19138804626536712 -0.058446407033579124 0.23611886808645077 0.969964895054681 0.5008875697833755
0.03091630335157208 -0.031540166027031157 0.19221496768023932 -0.042371542864997946 0.16954863619629967 0.984610538395367 0.4984696252425603
0.02755819702751775 -0.026363604131142606 0.19274913421900822 -0.058985217722590695 0.23993125866105403 0.9689962513898291 0.49838841845925996
0.028466303004263595 -0.028237078947385183 0.19566272677826374 -0.0710656184709296 0.2833851009073868 0.9563694696376784 0.5126571120236001
0.026840755046690205 -0.02383767593571418 0.19525412331589342 -0.05423047286485779 0.22298873746260456 0.9733113986683233 0.4878489860101224
0.023718522499920142 -0.022826941925598435 0.2036569668134139 -0.15943116836944035 0.5708512223296861 0.8054257163246394 0.6484928943915276
0.026191812659067417 -0.026042091292008237 0.2151527617334697 -0.2157613292277671 0.821728092972323 0.5274561498645516 0.9255586590353567
0.02810892292008463 -0.03072867482609756 0.21388781963298303 -0.20235649098646324 0.8284123164369673 0.5222881240571944 0.8741826544992445
0.0316303068237798 -0.03597313592824146 0.20451399986102026 -0.1392381175894155 0.5671462769046632 0.8117621863596106 0.5890750985491284
0.0308057402772135 -0.03391564750260655 0.1979991783661059 -0.0965866112325272 0.39546818493936037 0.9133870708694011 0.5222301160946967
0.035395468404715184 -0.041457814569316354 0.19597263745920382 -0.0726279791260916 0.2879318852696288 0.9548928767632195 0.5190305426913903
0.03915005939464172 -0.04728742188749175 0.19508874076460875 -0.049615380046227564 0.18143733827998976 0.982150093590965 0.5549544442935297
0.043491198773298545 -0.057086979004898585 0.19259632501432214 -0.061599708209396434 0.24229395402336162 0.968245379948824 0.5197462630463522
0.046947046220973204 -0.06263845523785208 0.19078076257357252 -0.044976611253233795 0.16965879848241064 0.9844760009963067 0.5318145955365022
0.050465800505169335 -0.06647771878208475 0.1893620149521097 0.013177144742206949 -0.03619157728833576 0.9992579910062392 0.5821878456431597
0.05955709130026716 -0.07626742938702986 0.18595686761718663 0.033550310954647736 -0.03410457914286547 0.9988549716131638 1.3323415458295251
0.07746565496538946 -0.07843852990927738 0.1856019852938486 0.022076925982504273 -0.017836445558244367 0.9995971541321087 1.759543243141642
0.08621083789591788 -0.07551016710674756 0.1841097962528044 0.013202945409353312 -0.009205025451206356 0.9998704664800137 1.9607752123438895
0.08956872634856249 -0.07416034900096494 0.18653942129859918 0.007689183154492382 -0.005022426157800924 0.999957824959586 2.025068957136961
0.09365878023498538 -0.07200214538118578 0.18628602202076522 0.01114759768379378 -0.006554978647118034 0.9999163781641024 2.0809402735720943
0.09640131390711192 -0.07069229597914752 0.1863926851717242 0.007751100539571241 -0.004698006887809117 0.9999589237422243 2.046117988952578
0.1017720628538617 -0.06804088988208559 0.18819249274970418 0.0015071354378946118 -0.0009453582781735067 0.9999984174189965 2.0771667825926974
0.10459487130129354 -0.0663538566270936 0.1869401227307245 0.002422016383238345 -0.001481407013228068 0.9999959696268284 2.0560911042865078
0.10814089722121516 -0.06505694724431428 0.18942948621270114 -0.014321737847935572 0.00855083577445186 0.9998608758385206 2.062260990852959
0.11130402632225715 -0.06321213919363794 0.18944891673687222 -0.00612949774790421 0.003717687411036068 0.9999743036986862 2.0385528246230145
0.1198432046028314 -0.0581200808239768 0.1851746625090847 0.008896402611764826 -0.004965059874128891 0.99994809975369 2.089981056114158
0.12403904719723802 -0.05599538765484458 0.18566996529678015 0.002797500736351945 -0.0015766362981278832 0.999994844090515 2.0840138070411713
0.12923375055739356 -0.05292303919437469 0.18433506568936214 0.009182730705658618 -0.005490794936946287 0.9999427626758183 2.0657637491189416
0.13278190659708278 -0.051004335000557184 0.18414334383755243 0.008820838788191551 -0.0052367794184118785 0.9999473830879282 2.0711961836405126
0.1369481733817914 -0.049014860098767245 0.1852559875502241 0.0006732132144588414 -0.0004732108674586674 0.999999661427664 2.1118026110896926
0.14233398701092634 -0.04569900269526613 0.1849878306013942 0.007547862628462925 -0.004527592650638727 0.9999612645870497 2.07666535344407
0.14655647954362888 -0.043706551652153 0.1831795881171038 0.0006182458139172612 -0.0003526167627366292 0.9999997467167341 2.052267413397285
0.1463089259025345 -0.04442273773018829 0.1873537434663444 -0.011443309291557468 0.0075401532897380755 0.9999060939712413 1.9974946836620955
0.1407607474396437 -0.04684026961605259 0.18775699262705042 0.0026674294943878816 -0.0013905287349835302 0.9999954756146298 2.052257182951138
0.14351599498437287 -0.04493179602679305 0.18802791776654254 0.014469060223356207 -0.008888533616581868 0.9998558097377841 2.038062527055215
0.1493342398577356 -0.04167474849680572 0.18590024867124397 0.014626685420486694 -0.009075132434614382 0.9998518400467663 2.0313579503951025
0.15253725840892945 -0.03958598942672663 0.18488570725838158 0.020452338589497337 -0.012435956486802685 0.9997134833703499 2.047892726233202
0.1566539242378046 -0.03734016951395384 0.18481125170784404 0.020040542626420653 -0.011526002637986525 0.999732728240117 2.0981527840896788
0.16568492642878418 -0.032358527216216564 0.1830767075763887 0.01580471494990931 -0.009053289202899346 0.9998341107103522 2.102534052525047
0.17060351428718049 -0.02888191155303986 0.1818418019891627 0.029000095672017452 -0.016760100519079953 0.9994388893182035 2.095453313747592
0.1798956670166118 -0.020977025893993147 0.1759053045770593 0.05082654638827465 -0.017128484325185697 0.9985606026711461 2.4297723988665427
0.18652989133747394 -0.012254578997742686 0.17945004764998113 0.015324790835735163 -0.004969045415615498 0.9998702212654893 2.8884755010346175
0.1834219206276284 -0.0013564073203268267 0.17450913266248158 0.10835832196716222 0.027779858383518662 0.9937236806721738 3.4612665939655853
0.18127195785828765 0.0051276881323753425 0.17191163378573365 0.06526335545543248 0.0167351465855977 0.9977277330531893 3.586987343556951
0.17966493624779206 0.008763819239032949 0.17153935817214672 0.05607616403947204 0.01370025785822003 0.9983324930909724 3.600494868619671
0.17737137890256452 0.011360393167340367 0.16949409304739796 0.07003376612956277 0.017243857874196616 0.9973955689531232 3.6166898042753766
0.17433263378540984 0.01613527103372608 0.16984217758320105 0.08131990115930414 0.01918226444364838 0.9965034442520783 3.6025515357079287
0.17336742938140448 0.020665819428883424 0.17067455012473662 0.050297854815156334 0.011934675405486669 0.9986629508117135 3.6078585992275753
0.17246820811177999 0.024953452400750805 0.1722963464008307 0.023959032625953565 0.005846560911469791 0.9996958449854322 3.6344083541446808
0.1709423891485378 0.02602153639337586 0.17483515161985877 0.0549546133724165 0.0126538525401967 0.9984086690754339 3.6028058701365326
0.17100212911980844 0.0211628822732217 0.17298723661355428 0.11724445539890335 0.026323948822715847 0.9927541424726435 3.5844816086328506
0.1769230822152905 0.016308681895412583 0.17276969286849597 0.028391412964936562 0.005960746614684261 0.9995791100106335 3.649263587949329
0.177743744020968 0.016271471815543025 0.17734454138454483 0.013380409441134408 0.003068262732845862 0.9999057707639205 3.651932623427433
0.17856928418261722 0.01068279874910668 0.17509424744469082 0.07176540445639791 0.015643918421370247 0.9972988491618925 3.5927848130869675
0.18180073911515948 0.008120640540555188 0.1772734568787825 0.02434238702249098 0.005392965064535806 0.9996891337420148 3.6293640612273625
0.18146983646912654 0.0100124800421258 0.1810596567541037 0.0017912858585123126 0.00023603191911847663 0.9999983677906211 3.6286291843282172
0.18327545960524333 0.00720341813571582 0.18186810232852044 -0.00906230352749537 -0.002311629159418232 0.999956264556308 3.62913259097129
0.17962413868141514 0.014336134709069392 0.18188129459992616 -0.013222828921195945 -0.0033408587626765985 0.999906993403911 3.6329505987785926
0.177780764190605 0.017378694463272847 0.18182804380985093 -0.007633526785930758 -0.0019023110189736135 0.9999690547619938 3.626189643344641
0.1731935259975937 0.017651539513341072 0.17358748683254147 0.11080739971190652 0.026211192306714662 0.9934961970571132 3.608901011744316
0.17031394885556905 0.0283955754990259 0.17356598052688174 0.03603893804301175 0.008511644517173208 0.9993141382229841 3.6061483071084726
0.16694057621217254 0.03125291157131259 0.17393447464313871 0.08860811149072408 0.023310730723930664 0.9957937599780207 3.6439459268122887
0.16779965386653525 0.03362897406720719 0.17291489422290696 0.026743806935570446 0.00704888891774103 0.9996174678123719 3.608396925397129
0.16547461905555275 0.0381097967034842 0.17346949009046922 0.024504270692838212 0.006566727915352311 0.9996781576098869 3.6516308620214346
0.16427624830730028 0.04084798982625855 0.17213596966191055 0.016665400362130354 0.004276222290359783 0.9998519782216233 3.634418334599835
0.16113049667346394 0.04480888215178254 0.17337309943546284 0.045604269809160644 0.013155292771126611 0.9988729593132848 3.6874426750337057
0.1589719815973826 0.04749055605815388 0.17269266681031745 0.06179175055154498 0.015608181398790034 0.9979670156058256 3.637103152866502
0.1592334108901166 0.050846386026599244 0.17613820734201963 0.016992872870098062 0.004278845795130544 0.999846455087121 3.6480655304777274
0.15887860572853388 0.054340264678835334 0.17910147666727824 -0.02469715787498264 -0.005619834096258671 0.9996791824668695 3.611970044691388
0.15983020116343072 0.05176765581510722 0.18179785596313972 -0.015535562284600207 -0.0036952259639206927 0.9998724876750921 3.6230140544604947
0.16258372352362044 0.04699125821118147 0.17993238672497175 -0.021610769488839582 -0.0054406255196084285 0.9997516562807265 3.6369315655259884
0.16487441380082846 0.04318746080566087 0.17936868896987185 -0.027178416073148283 -0.0066145805372037235 0.9996087139596531 3.621179456843148
0.1663237987538162 0.038818405541032205 0.1784297013483186 -0.006417531008910997 -0.0015543770788725491 0.9999781993661893 3.6345373680885515
0.16845725558558772 0.034621077062908505 0.17989039647837904 -0.002926122823376886 -0.0007122433177466428 0.9999954652470573 3.630597360551139
0.1700702733771388 0.031473621033079456 0.1813141388223343 -0.001440946743535096 -0.0003526411159804582 0.9999988996577573 3.634926353103286
0.1722051026880839 0.027603357914963805 0.18144682857604028 -0.0031511338722117186 -0.0007680744358717586 0.9999947401946574 3.6258127657559087
0.17408283385266612 0.024081132242392746 0.1808441665604456 -0.0030195635196872514 -0.0007508820761079428 0.9999951591944124 3.633169691875815
0.17572716642808545 0.02112044583762603 0.18108761798309206 -0.005779902969110214 -0.001476745311193401 0.9999822058141601 3.6416406654635556
0.17438088299660598 0.02344408565663538 0.18408013552433086 -0.003464405242500166 -0.0008913790718019692 0.9999936016493635 3.6454190473611123
0.17319388009937112 0.026187181162285404 0.1863206610843462 -0.01221643640937505 -0.0032046652860400035 0.9999202412201986 3.652131826148103
0.1707647860347901 0.03077285515050024 0.18590516565432716 -0.013036329221481924 -0.0032998579544284735 0.9999095784409257 3.636741089113974
0.16760526043036122 0.03642911459175849 0.18254052044414007 -0.007283794993068986 -0.0018387218415586125 0.9999717823181253 3.633405669435681
0.16547294618040512 0.040118772804278134 0.18251455723438081 -0.0024473146338553093 -0.0006256635417239256 0.9999968095930183 3.6543326221165104
0.16370880978103236 0.043402706425776066 0.1821687608304297 -0.004086040279035273 -0.0010468493930282886 0.9999911041510252 3.645776186681538
0.16130960754981843 0.04821401606432044 0.18134077136463259 -0.0076221739604278435 -0.0019178907090757259 0.9999691116026259 3.6360999161781997
0.15624957163889786 0.05837970527600818 0.18019999195001773 -0.013614160433317082 -0.003634885288927076 0.9999007161936792 3.6588845946769513
0.15308777051344652 0.06587504437157546 0.18043615265165236 -0.03506905408446792 -0.007913003296363196 0.9993535639724572 3.6001290582694216
0.1540186339523394 0.06215372876801891 0.18145817560623842 -0.014220013146590998 -0.0033732860110846914 0.9998932003807198 3.6321712260455925
0.15115551888407205 0.06872818663514403 0.18270266160700324 -0.0255972949332308 -0.006702439436372999 0.9996498666021534 3.653134280583457
0.15024614218400123 0.0723247016850226 0.1830693920689963 -0.03444913232758939 -0.008578727721909745 0.9993696326747924 3.631611214364411
0.14991995115526027 0.07262031297463113 0.1860175203350641 -0.03270342134485847 -0.007992781376589857 0.9994331401740723 3.621209545305775
0.15099483466499808 0.06819923503414681 0.18593817086357606 -0.01837271881569063 -0.004351018843839822 0.9998217400308618 3.5997234442540957
0.15233230201532197 0.06562878112279631 0.1844979301951712 -0.017724335189454002 -0.004357129574483407 0.999833417807168 3.6221789292043702
0.15539834792439447 0.06027619434121385 0.18433844957653456 -0.020994265822735014 -0.0051292982450396145 0.9997664382754994 3.620796468131625
0.15745724625036112 0.055716160882721966 0.18283332017493248 -0.006121476840136179 -0.0014939675344555685 0.9999801475940918 3.647911500752202
0.15688840445046248 0.057634287890957564 0.18699557386957893 -0.025446944372691706 -0.0065235905441718015 0.9996548883432248 3.645561750044777
0.15828950297569302 0.05466530565169463 0.18715090244042226 -0.023697292994786155 -0.006204251794563099 0.99969992776052 3.6545031278619238
0.16066202688531114 0.05005618119963152 0.18523091509688375 -0.017048280226924374 -0.004160116285678486 0.9998460129308882 3.6153036643982825
0.16235449890070308 0.046537459845765156 0.18529893558856483 -0.013192358876343239 -0.00326550514657381 0.9999076448069668 3.626640540892351
0.1639175153471807 0.043693442223220455 0.18675969313964086 -0.016638225128985613 -0.0042617556082503736 0.9998524925726257 3.6416861107874845
0.16649285831743849 0.03878787870845673 0.18572042762435684 -0.013878208865137832 -0.003445921935041646 0.9998977552433613 3.627463536150607
0.16875902498010337 0.03460377392146319 0.18605216889231752 -0.013994637125128115 -0.0034809206343680856 0.9998960112548071 3.628926863529714
0.17174978757138043 0.029320076903412158 0.18837911683079428 -0.022065204034021426 -0.005581508687385016 0.9997409532132361 3.6361741433983132
0.169324025311972 0.03388440893874001 0.18993120178904832 -0.0251277011428225 -0.006300147078582477 0.9996643970763714 3.632433708579125
0.16704990202838513 0.03832197718554227 0.19070580115359148 -0.029146785372661292 -0.007188353339268206 0.9995492946717085 3.6250918034325523
0.16515153231094548 0.041658529507227 0.1909842160330815 -0.025709880422509174 -0.006347847262212509 0.9996492919438277 3.625239557072779
0.1619438137300248 0.047303071794303986 0.18846840324362185 -0.01681061846233487 -0.004146776677448101 0.9998500924389122 3.624320010689438
0.1608283473694227 0.04981765027154466 0.1883086117283048 -0.022879662413483548 -0.00507082555790261 0.9997253661761347 3.5812582359803677
0.16289416618243155 0.045728048213637074 0.19002262083325247 -0.022404887837660606 -0.005492475891424921 0.9997338914479011 3.6236861367855564
0.16113926082411534 0.049332664159114706 0.19205333415977913 -0.030689542430741238 -0.007928269794921866 0.9994975210191623 3.6446046404678643
0.15960057020341362 0.05172461710158945 0.1912639293643178 -0.019293213606536967 -0.004735962996540749 0.9998026518084597 3.6145435092755966
0.15696620461515975 0.056558740381733544 0.19075684278933935 -0.015124476684046413 -0.003898650222063476 0.9998780179259267 3.6459266490781688
0.1537158322607686 0.06251249643138902 0.18689632342621806 -0.012676955704651147 -0.0031254154315038815 0.999914759653263 3.6227330114505403
0.15476346197119037 0.061176778264914876 0.1885571587341512 -0.022513234952927265 -0.0059076057007427275 0.9997290905274483 3.649330846493831
0.15257387076933598 0.0653233871967988 0.18958066624752684 -0.027809132345334945 -0.006388742607014651 0.9995928351714517 3.5963262755746186
0.15416600242973086 0.06245413205803576 0.19102494149923058 -0.033035040407208296 -0.007464616141774223 0.9994263182502001 3.587155410881631
0.15535884176264325 0.06080193973103397 0.1931897173590756 -0.04515429375928316 -0.011867559445664502 0.9989095308324494 3.6491881427957638
0.1506117628502843 0.06977559181988557 0.18986927297808223 -0.03742956009957308 -0.009095816196514827 0.9992578717020305 3.61251350038258
0.14921139742337203 0.07379361131616262 0.19140213871428088 -0.037403099883771364 -0.009076089178763482 0.9992590418526639 3.6130400015300634
0.1502466888792646 0.07237235121569882 0.19407777974028373 -0.07230295563663221 -0.020699350918533383 0.9971678993418103 3.6816302370627794
0.14856745168146285 0.0753084567621809 0.19619727934367845 -0.06380185348224006 -0.01830397496591488 0.9977947123495283 3.6940696634675514
0.14814378311312063 0.0765316029709945 0.1981984268972252 -0.08608320880869726 -0.01997714242546551 0.9960876442069297 3.6048047572997177
0.1519472453022964 0.06793901752826291 0.19659346762522648 -0.07041047665197105 -0.015347536487063704 0.997400029026178 3.569903023401201
0.15445038481512136 0.06297694031180587 0.19676165991613773 -0.06483268378263372 -0.014507682181024393 0.9977906845983657 3.581487421884202
0.15893097543399573 0.054919457796630364 0.1959511485765307 -0.06545022219686032 -0.015326088422021168 0.9977381316899049 3.600816446645766
0.16129008804079825 0.050821266576377526 0.19845879082248638 -0.07830123187058483 -0.016786703408052002 0.9967884046658242 3.565109382182017
0.16326394399554098 0.04669395318884575 0.19649549875050804 -0.06698138780276887 -0.016051661633052466 0.9976250988456701 3.6145852761444712
0.16687662979036208 0.0399129752769965 0.19604966488002323 -0.06408713010466749 -0.015542233402175915 0.9978232702917986 3.6178009149690546
0.16833506775010978 0.036705446789053194 0.1944546065834461 -0.05160205801237386 -0.013111969023913529 0.9985816460746729 3.6413509844912757
0.1707494149789647 0.03190905285467804 0.19255615473589374 -0.04109510161077987 -0.010310830710218322 0.9991020365276337 3.6332484917044385
0.1737764905057805 0.026100517024823452 0.19194868987291538 -0.03683640488875544 -0.009045894237266337 0.9992803666000446 3.622734896224077
0.17500925549457788 0.02345734620027172 0.1898696345275585 -0.02739452559817651 -0.00681392276122302 0.9996014758011589 3.630148183182725
0.17826099155094305 0.016811928089683282 0.18601709252077453 -0.014026038463603153 -0.0034952268245212266 0.9998955213593382 3.6327982055331027
0.1801701892013266 0.01313064155199774 0.18562558654119013 -0.013115407583222678 -0.0032374581350096505 0.9999087483109396 3.6269051465891065
0.18318279681402927 0.007261112528386453 0.1854940869123111 -0.012120391990192948 -0.0030564307971253997 0.9999218741125662 3.636812120214114
0.1820960098001355 0.009589936990434785 0.1869049227023005 -0.016669573943272686 -0.004061377924421435 0.9998528044236835 3.6214380365138044
0.18756376070430716 -0.0031974014485038065 0.1860102496299389 -0.006470768762221508 -0.0011177715406019547 0.9999784396367797 3.2122733738300067
0.18536672903980925 -0.01554797749581801 0.18897616650543278 0.0125723136437416 -0.005352859145643285 0.9999066375560322 2.6694928923555596
0.17993513018517224 -0.02238326203742256 0.1854258310242041 0.029284131335228863 -0.012546942466175175 0.9994923781033508 2.418894568018595
0.17619212808562318 -0.02570515096037617 0.1890585273283565 0.04094516824641566 -0.021246216421787367 0.9989354791401851 2.22374274790242
0.17102138286341992 -0.0285841927438812 0.18600757322145903 0.04024395052046566 -0.022882600042977822 0.9989278307574474 2.117771338546608
0.167641503563414 -0.030608632682801545 0.18530591461302953 0.03799089032869587 -0.02188429772510974 0.9990384225669761 2.0996249619937917
0.1611519599858638 -0.035112133811673336 0.18709799611276304 0.016249865472597352 -0.009360114866800889 0.9998241495992197 2.094650763625072
0.1578425147468006 -0.03663179386876687 0.18793391703287876 0.02389940027591509 -0.013859193614229739 0.9996182978611461 2.09089154837226
0.1624671927894687 -0.033700089288897374 0.1884848043102849 0.03661200437632347 -0.021304949413524496 0.9991024273146548 2.088794136694981
0.16717059897862127 -0.03142105234150149 0.1895076773793152 0.03210576410062286 -0.019022195938187426 0.9993034453924415 2.0719039715212895
0.1702813423612185 -0.029344446732011528 0.1892675555678617 0.040976921354121995 -0.023804671467340242 0.9988764836218091 2.088838485480098
0.17059007075783097 -0.029690917873710112 0.19247724640281866 0.035223202174589054 -0.02117545057348569 0.9991551062380545 2.0572285845700886
0.1651729210070181 -0.032628582285529756 0.19135784438809159 0.03177618023386737 -0.01880488986660881 0.9993180927446722 2.0731269101362257
0.15933753994442265 -0.036057923846548275 0.1903453865893141 0.02312463825435656 -0.014294578930223963 0.9996303897535392 2.0259308514571943
0.15489560822552403 -0.03851119646764181 0.1902590082396058 0.021356692732021176 -0.01296249336846124 0.9996878840124165 2.048691098052313
0.152395875003437 -0.04010080113702111 0.19063135154473468 0.01498605327832263 -0.008889844747842511 0.9998481829095348 2.0740319083841388
0.1505114056654041 -0.04107735920893067 0.18967891335380485 0.016358381580122622 -0.00888360263507326 0.9998267274664652 2.1454988302959537
0.1506187342091932 -0.041205225801214246 0.19267602813117624 0.012785737229568482 -0.006330865643378558 0.9998982173519971 2.229883561805175
0.16075175502667513 -0.03527354276960782 0.19388278619139354 0.029780633726224828 -0.0139397810442934 0.9994592519754377 2.260668473591337
0.1676500747729986 -0.0315593034370228 0.19390142410800074 0.026503080539984045 -0.015291885298876717 0.9995317628599389 2.08649201111765
0.16500887399272984 -0.032738301816303716 0.19451959329646526 0.034677657045515564 -0.019937332317683302 0.9991996611698224 2.096322055526008
0.16157317620077843 -0.03485758243988464 0.1956083761032105 0.029557059453270793 -0.018155374536296738 0.9993982002244763 2.0352035900757195
0.15637770109415441 -0.03793734713717731 0.19630346632493828 0.022179814138382496 -0.013261305106304114 0.9996660410515426 2.066274471822539
0.15063976338128302 -0.04115613423427159 0.19470807615249539 0.01623465833270408 -0.010035064296572624 0.9998178500873968 2.0297069071160316
0.1429974696997319 -0.04552360758330956 0.19206301413334767 0.006603822787086534 -0.003990137898017317 0.99997023371906 2.0712723873734746
0.1392159553952753 -0.04758371797645227 0.1906069063826648 0.005887237292638776 -0.0035441500098667943 0.9999763894401547 2.0615051453060893
0.13675368780387162 -0.04824028582307767 0.18786535436020604 0.027406153775603573 -0.014585559535465522 0.9995179659157035 2.1390728030796025
0.1321367552831944 -0.051557328599355336 0.1879178488515182 0.0057796495210713575 -0.0029083741120429813 0.9999790682866507 2.0936338839321644
0.1279312962435747 -0.05309036622504742 0.18578418576525899 0.026652580780048805 -0.01495126197962094 0.9995329407793319 2.1091873326501114
0.12392765916567657 -0.0562812115056472 0.18891702492913043 -0.0024169983587043428 0.001644293243060564 0.999995727200204 2.084124581167044
0.11991111452352946 -0.05898301763525459 0.18917959992320146 -0.0169303271585155 0.009966556024609873 0.9998069972666294 2.083338229491031
0.12109289862575597 -0.05851231603384147 0.19204764257929655 -0.014832308765537058 0.008780054021497424 0.9998514455998266 2.0743366730064228
0.11773511572854654 -0.05964932795308992 0.19147162529091957 -0.0010851132873098096 0.000588868434143239 0.99999923788127 2.0559447983367556
0.1147349540628047 -0.06131418364272205 0.19110631555709276 -0.005846214214141008 0.00353270788036601 0.9999766706050668 2.0516513598538744
0.11205219720498295 -0.0629160691921089 0.19273759731245327 -0.010741952281353445 0.006474343121011911 0.9999213435777519 2.0558686675289555
0.10483207035382952 -0.06671709188088766 0.19110780906157726 -0.010402438244311314 0.006425896503297058 0.9999252457722538 2.0360966375774603
0.09916524394289498 -0.06956389463373988 0.18968358436102056 -0.006710871235983775 0.004187488768963837 0.9999687140831276 2.024563676952313
0.0947905974801321 -0.07189717120758612 0.18996020902559188 -0.0046368257336354005 0.0029802776309729995 0.9999848087807924 1.995440295050629
0.08678415820908496 -0.07582849647179898 0.1884330583651498 -0.002349208809470347 0.001513771973230889 0.9999960948485662 1.9988422669598105
0.08899298194763162 -0.0745334772050954 0.19077366010658234 0.0037268808883397157 -0.002190831605798137 0.9999906552641975 2.0497663092668708
0.0914227345159902 -0.07340275004205324 0.1901779696139923 0.000413548006677794 -0.00021659284495857337 0.999999891032787 2.018923472788273
0.07982464533330741 -0.07842090160433614 0.18957444680661148 0.007412158222199269 -0.006231742866189961 0.9999531115464059 1.816561125665795
0.07840117243431205 -0.07926276505645116 0.1931296249123257 -0.0013966020598459236 0.001048735988209318 0.9999984748265937 1.7948420436185857
0.06823022472126022 -0.0810709660144057 0.19131752635875893 -0.01469900985910052 0.020700701944574077 0.9996776580719225 1.4041616992856338
0.053313781558643546 -0.07377834811167709 0.19524708111859967 -0.034771334609736075 0.13731447303882008 0.9899170115638628 0.7324602220078374
0.04852178725723098 -0.06486162480701381 0.1946848692993291 -0.03800589497545057 0.15671125545086553 0.9869129315001038 0.5543482989327968
0.04498134507658303 -0.05956418178562919 0.19520772316129223 -0.0634416180988225 0.2709200086870886 0.9605089848543799 0.5030518911760131
0.04221293931290747 -0.05555160427299458 0.1953232586540786 -0.08153075722228458 0.32809055514401214 0.9411213116554393 0.5218832416201435
0.042822795438705846 -0.05583419995400255 0.19939353524780581 -0.0898573713280139 0.35757617266407105 0.9295509311280012 0.5295993470628393
0.04189313971988366 -0.0505339322403402 0.1959339598146061 -0.01877388623934993 0.07497697825695575 0.9970085224946313 0.49567827708920725
0.04314737019894221 -0.059179655728738144 0.20388396494716948 -0.14114211986098385 0.5894478952361188 0.7953804629250439 0.593258030815441
0.04627242210865585 -0.06550811317598865 0.20658147360994733 -0.1716873582675714 0.6208852952060748 0.7648692052945835 0.6892439420704346
0.05497505152102045 -0.06558506640628374 0.22575763446791072 -0.2103547650296507 0.9107640744429918 0.35533037237663906 1.197921546291453
0.05689337681589958 -0.0626822534154653 0.23001682340172738 -0.2759089838451825 0.9042646923628489 0.32585211182289564 1.4906220172361961
0.05324243186623981 -0.057445598330894326 0.23058330539559033 -0.23578030777592954 0.9344625668603244 0.2668095905358383 1.5147695057342423
0.045747151612395044 -0.048757441613893324 0.22819393182293082 -0.1915062709384451 0.9517766325012198 0.23968018277673467 1.3830509934510202
0.042228441951644255 -0.04418664762727503 0.2272253828600224 -0.16625737535347582 0.9617666248255343 0.21763144192021824 1.3350802635251324
0.03771939351773961 -0.04261771860866852 0.2230347125193342 -0.1883468208238222 0.9336624691561234 0.3046307088506503 1.18023452969063
0.03404655255101702 -0.04002103145161868 0.21929702881954738 -0.19100937154794856 0.9121663050638926 0.36258523396153797 1.0525514455095144
0.032120676585764465 -0.03367539368641986 0.22165246627985088 -0.21088845810204837 0.9105712963480651 0.35550804844102274 1.1526533446652498
0.03338241374575652 -0.025836411667960826 0.22719998361553345 -0.20878260246732924 0.9384211439775622 0.2752736482898658 1.3625689761019675
0.03871536949699385 -0.028567829130081684 0.2293312513345338 -0.1620316161943416 0.9670119795798493 0.19655428436569566 1.4268651218527646
0.0417879902761127 -0.03533563401251142 0.22953561403649367 -0.2057539765026068 0.94761784043641 0.24430663036438352 1.4559364403671018
0.04357600918318087 -0.03904247026431788 0.22950510615656322 -0.16903072922891238 0.9651845107973118 0.19961831752946962 1.4415368826148762
0.04564629744862405 -0.03758682405161041 0.23026234089617087 -0.21661627903721303 0.9441103299632417 0.24846141051030626 1.48940090861893
0.04802477379962496 -0.044204665173167686 0.23046908222239715 -0.19880791951032814 0.9536921357658451 0.22571380400488478 1.4912788310723715
0.04806189696757489 -0.03881029486492567 0.23117002571441161 -0.1303785049086277 0.9809014321507131 0.1443392734583024 1.494267876629022
0.04928743999577729 -0.03724393274782848 0.23133803695284474 -0.16050447989078684 0.970853986466113 0.177991148369363 1.4989726452878736
0.044800065300609204 -0.029517583596770026 0.23090818785682626 -0.11725162080129412 0.9843320180715883 0.13169106127062621 1.4691596649112657
0.04083734644525098 -0.02585314136899774 0.2303705009201499 -0.14706729052772294 0.9746792357052259 0.16843871153007245 1.4620178217894673
0.03752978054011918 -0.020746964761367507 0.23015834704757338 -0.1682989243378208 0.966740990173243 0.19258071031541615 1.47024363382634
0.03185439530447558 -0.015064759143556771 0.22963922789606 -0.17048022467438645 0.9656046408770111 0.19632669332454328 1.4649041848070823
0.024368942664041958 -0.016125614369183503 0.2212976982570447 -0.2061272250963702 0.898072953910903 0.38855699263790777 1.110592647004708
0.023885758690009088 -0.008070060724258744 0.22723830547489324 -0.18162462582567754 0.9525944446745143 0.2440826074691446 1.369256671253407
0.017878501420949867 -0.004739298229443817 0.21955744108030598 -0.18383045355711208 0.9090945762522568 0.3738360814230165 1.0127028014642943
0.02261655488953412 0.002188699232610632 0.22795985806829797 -0.08029096180996607 0.988547994386291 0.12777411414865017 1.347851824727138
0.04324236100345617 -0.005655266343507247 0.23065393784188404 -0.5247154671727692 0.6390273546001829 0.5624212999010213 1.8878852293012955
0.03342348197914169 -0.009593541833860235 0.2302326290681877 -0.271494453682799 0.9154161536915822 0.2971599353546638 1.537455647095959
0.02891274836942903 -0.0072882305163313316 0.2298712869544762 -0.16570125800012436 0.9687058167007696 0.18480295935745053 1.4769622901715735
0.028060908186202736 0.0008718029429185197 0.23034597206739987 -0.0505079118587833 0.9971471509023733 0.05609376335159738 1.4788980742591267
0.029404002840125815 0.0050626664781578306 0.2306645039326532 -0.005270943968305201 0.9999677534772474 0.006058808079951811 1.486365872463273
0.02849683934959766 0.02023828501625845 0.22943019813048496 0.19491011262421165 0.9528674290543087 -0.2324945389557555 1.4698710334422949
0.0326517263929955 0.017790101332416076 0.23054809444645358 0.25506710731487625 0.9257751497053669 -0.2790719315051713 1.5580421375694236
0.03919242873749594 0.024170238176797913 0.23121072914409213 0.3445887140715877 0.8659655069100056 -0.3624394556013273 1.6601601089871547
0.03824235118382482 0.014773061233319423 0.23185338752498494 0.03848228875757169 0.9983675737237228 -0.042205463970741756 1.5428668999583366
0.03715534641276824 0.017147084819120997 0.2313264607304431 0.20872423480311128 0.9516392514784908 -0.22542610507949912 1.5581024799939036
0.045609180835883834 0.03260118368369416 0.23071926577386334 0.3920324438767653 0.8131173604096138 -0.4302914374566535 1.691911576130645
0.04563075833011881 0.03586324189094408 0.23046648428282285 0.310200073032211 0.8886232929331083 -0.3378232643669321 1.6065628762660065
0.04814694010377329 0.036596197975654825 0.23060889131858703 0.3927637778042129 0.814507172944197 -0.42698323159980744 1.6927919911192082
0.05020780044668061 0.039544697359652714 0.23033166194723462 0.33899034537933687 0.8630192956202544 -0.37454404430816657 1.6171703001363587
0.04979728530218459 0.0342985846624344 0.23020502543751623 0.11604413717093849 0.9848666762345823 -0.12872990433810977 1.4699473745059282
0.041968657813529625 0.023076135275741018 0.23108432143324403 0.1466746659520728 0.9766009522460285 -0.15728039432808613 1.5191454660610966
0.04448246970244994 0.02498700800143835 0.23099952080952166 0.3292922434966205 0.8733446362400631 -0.3589369926932505 1.6214266716843606
0.049051518555891876 0.031837603284988684 0.23062504090505118 0.35059538220105313 0.8514403920211854 -0.3900411988676423 1.625986337541666
0.05050366032443155 0.0347233622005587 0.2302596247020668 0.3122820462969128 0.8818612585582385 -0.3532713464388135 1.5724684412665269
0.05456629269892166 0.04382110622570709 0.23034113841421536 0.28577297222649034 0.9035426860035034 -0.3192873672953753 1.5616724137790428
0.05887631009873553 0.046161223264287544 0.23053240271855283 0.2961282982395045 0.8947141956673389 -0.3343569037019005 1.5609377862220033
0.05569978848103638 0.039006708091312854 0.23043350719933994 0.20678642285277854 0.9498730703962825 -0.23447926445571002 1.4957812173229637
0.05543867018319324 0.039272249980234146 0.23047869965752144 0.2815320092680587 0.9050587074689839 -0.31876082537235 1.5459884313334393
0.052914015700449 0.03409861198239968 0.23071139916486935 0.24854397851973875 0.9277047603363608 -0.27854940027010466 1.5323338440343293
0.05110530024103124 0.031086000747446652 0.23069179629193948 0.2820372991354666 0.9054639954660127 -0.31715913168486254 1.5530568861256544
0.046114030324140874 0.024693394432882557 0.23099728017127416 0.23172969361658094 0.9385336878075634 -0.2558434403042229 1.5375964333056078
0.0471746980245641 0.025473679500665623 0.23098255635124412 0.333911493132708 0.8674410404487858 -0.3688484188647327 1.614285850287468
0.04822617133388415 0.022342336474567164 0.23134617878344885 0.19524848480618784 0.957058338425744 -0.21428337786828427 1.5255656897133096
0.0414491534095149 0.01500853104634797 0.23143173743417436 0.18909973924647092 0.9604171603425646 -0.20454869038065518 1.5340998315057608
0.03421436591786574 0.002601273327916598 0.23151261871761789 0.009684741509840684 0.999880322797004 -0.012064239107660106 1.5141170379074083
0.03240070946979683 -0.002665599570981055 0.2308772266535773 -0.05444404041028846 0.9967389278631554 0.059559685576824756 1.488566716212964
0.03546823970258927 0.001355257586010261 0.23133532184117456 0.028882617054386293 0.9991152954028949 -0.03056829933241188 1.4987136012115545
0.03598278234590324 -0.00350010562880498 0.23130720140390937 0.004310931927822584 0.9999807566022283 -0.0044611983982985525 1.493798077493184
0.03458173519329075 -0.015860147574264377 0.23033071769103577 -0.13626915746151905 0.9784016673989356 0.15543774945524125 1.477951437515869
0.03625190557322886 -0.01397096307588764 0.23060857148804081 -0.14335997092262134 0.9764269923208482 0.16136371154732157 1.4814726320406477
0.0391911926752705 -0.020630626460165974 0.23055505923593184 -0.14249393282673847 0.9765553165551133 0.161354246351038 1.4720424086857373
0.04019048317983822 -0.016310840933817322 0.23100570163367995 -0.12748034324258925 0.9815738824709181 0.1423428092237886 1.4805688719623806
0.03871691246978614 -0.009068061751676449 0.23129383633743 -0.07640691630116028 0.9935360861146683 0.0839525385518151 1.4887853711668149
0.03906955272179424 0.0013078507978182257 0.23151333095217635 0.06920280178626348 0.9948582259890338 -0.0739464833976803 1.4978353570654215
0.037484655928671784 0.006833234961897824 0.2315525388803559 0.08929502471792909 0.9914841522681795 -0.09479226952486171 1.5159249129396062
0.041093786654161295 0.006472035194394782 0.23139034001598532 0.14289088705432934 0.9771985760997531 -0.15705138415640274 1.5031970948644904
0.043974878553496854 0.012001651233794569 0.2317444427709985 0.22680000379362966 0.9431748145206509 -0.24286421624674398 1.558692321103298
0.044935247546949546 0.01688043233824622 0.23153682239796586 0.24132802129487543 0.9344379520247256 -0.26189024409805106 1.5566164169954895
0.048618422069353406 0.023218480948050884 0.2312824455857662 0.2924141178628331 0.9005936797570417 -0.3215975865210621 1.5812828394457625
0.05177984205666635 0.02403847177307245 0.23138254692421167 0.2954959164325528 0.8980407745176859 -0.32589097973917663 1.5806789373889538
0.054087278775129775 0.0305902457378595 0.23120098423702268 0.2753717135639253 0.9119038949004507 -0.3043052839407415 1.5631169367427105
0.05657320397842973 0.030306469542509602 0.23144290722835012 0.34251715619908185 0.8598241210395284 -0.3786614300240994 1.6215172605053554
0.05766232527575594 0.03148972578331837 0.23133141844349775 0.253194795389903 0.9251370929499204 -0.2828670267734219 1.5357751110965523
0.05884172124012333 0.034577975756264 0.23144272504735186 0.18316124926049823 0.9618848586252967 -0.20305042604418888 1.5078432146901395
0.05955518235711917 0.04031890085181797 0.23083364646037233 0.20358482009093481 0.9515283346372659 -0.23053643835839271 1.497271042744027
0.06251948195172419 0.04744100171872322 0.23098260946226407 0.2706305321967403 0.9140815352435541 -0.3020166584307829 1.549838636708751
0.06559539212498813 0.04749202890452824 0.23123645306919982 0.27832434476224627 0.9086972783403319 -0.31113472234634904 1.554833566278163
0.06909047050928009 0.05283338941932148 0.23117929588467268 0.30100271536411666 0.8922544759934667 -0.33656992648341694 1.5730537717661957
0.0748446468675174 0.05567162510376988 0.2314527629806545 0.3486341013777177 0.8517678447067704 -0.3910828583307307 1.616562718222968
0.07211180991987053 0.05181237644282229 0.23122632844422683 0.32208284970487144 0.8724100203171529 -0.36764574576107084 1.5741526505271035
0.07138953431489216 0.04927979531316547 0.2313960990739792 0.3465024148322686 0.8514535824312764 -0.39365324014969333 1.6036274391848755
0.06597189188639373 0.042921529369460525 0.2316425741504339 0.28181091937065106 0.9066240193313618 -0.31403103874444427 1.5626820268786012
0.06348618139116954 0.03635979137657835 0.23160222909558087 0.22183913637861463 0.9429321299966689 -0.24832719502852596 1.5167793967835133
0.06189001106826635 0.032750528463410325 0.23161697978017592 0.21521309530906008 0.946472068090255 -0.24057004787057187 1.5144507648461922
0.05838434458178291 0.02934059193072385 0.23155193806531937 0.2715704997008574 0.9134753848190774 -0.3030052557660753 1.5516045688332503
0.05520065196817676 0.022551259067511483 0.23184397550209146 0.2520021665992378 0.9273660654955362 -0.276562992095144 1.5536606271857503
0.049609768539640615 0.017850573243863143 0.23175195171469792 0.21242424657984366 0.9494095220750625 -0.23129526337170686 1.5383792231051665
0.048311990119524584 0.00886657740139134 0.2321015056266726 0.0682288258489312 0.9949203312172049 -0.0740159567520652 1.5061876851636096
0.048222292177534515 0.01145478324142487 0.23207511079020943 0.19346101565560506 0.9588600311803128 -0.2077505139016293 1.5427303557321657
0.04453152399025209 0.0016902473564265434 0.23173044034304835 0.06646592590948786 0.9952122265515867 -0.07165825015465928 1.4927887991295175
0.04201602521203511 -0.003907577500562386 0.2318210576196246 0.024430386076587162 0.9993566115384467 -0.026258697807452023 1.5013040773228763
0.04179411669256009 -0.008763086726053781 0.23170283942545714 -0.009842012443643331 0.9998930519193774 0.01081755584281987 1.490714349178583
0.04416734193766059 -0.01528105560345053 0.2317775694816938 -0.061921928703541025 0.9957996746770025 0.06744392232669627 1.4915952149387626
0.04392434946748478 -0.02275339785270881 0.2305163485311594 -0.140637108592093 0.9759226957172499 0.16672161128909468 1.4404901785019182
0.044437285695016066 -0.023787130235657632 0.23095600183319911 -0.08610061854384206 0.9913333106421658 0.09922172492761298 1.452840158065677
0.04896891940236473 -0.026289232791055966 0.23176874507170678 -0.19354322721698416 0.9580086070694018 0.2115668404532703 1.519756556346791
0.04925201302211107 -0.028835396771823715 0.23165309910868864 -0.15966083054967917 0.9712815221931078 0.17641038471253906 1.4979457926538284
