0.13152221878396642 0.002772397215940005 0.0687841010457813 0.07545905457419151 -0.9939882096532868 0.07933076422815238 1.5384670709953756
0.13737294281884904 0.0115056365214857 0.06866656602136763 -0.05231384998334514 -0.9971233421974592 -0.05484798578697839 1.5285280901622684
0.12990562952422513 0.0029988568137290493 0.06879100380436287 -0.30471128618149 -0.8985376708648019 -0.3158814431245987 1.6390873413048306
0.1295667619188069 0.0024076804998500916 0.06885001860777758 0.05154334730317036 -0.9972206838831921 0.053797685678134824 1.53504786792251
0.12820609844274747 -0.013852828618384317 0.06917945444997876 -0.17887098556779404 -0.9672696793443973 -0.17998482697992274 1.5867318879799794
0.14100823644361132 -0.015334346078460494 0.05866709896439337 0.31748535084031104 0.28946863701887393 0.9030010853726811 3.5873687927069016
0.14725236843426553 -0.02173477090799639 0.06705911257152086 0.26583437845096036 0.06065844025142008 0.9621084330052702 3.012332567322527
0.1536120815516888 -0.012625728152849085 0.07062240458006142 0.19001118405645584 0.012356528716859083 0.9817041642631109 3.00883365754436
0.15726613917001522 -0.00499044512016131 0.07328823694716563 0.12749143889194336 0.002489822620683732 0.9918365459049083 3.069174699480512
0.15917057144973348 0.0031404719554443553 0.07527350264293896 0.08699815182076645 0.0008859583803153573 0.9962080789963104 3.122630348262662
0.16054469743159117 0.010849374230424763 0.07904461352891577 0.046712739902714115 0.0010692012350479244 0.9989077919104947 3.191215160175062
0.1588897651973727 0.017679834360766946 0.07616531404630837 0.06805158621838707 0.005031028083011757 0.997669118680933 3.2777290603738
0.15381578505028287 0.02525360664890676 0.07215333180658348 0.1458780863090083 0.02529074530421319 0.9889792526321161 3.439229782964038
0.15065148170032452 0.03502917762296187 0.07332798465056437 0.11489537703535477 0.034200190872416804 0.9927886982032953 3.7369022301481696
0.1446083428230407 0.044907922806811704 0.07864072727336446 0.041708873491451685 0.013165712581144512 0.9990430590741848 4.076345051164905
0.1349398948980739 0.04683922161446577 0.07475013325656331 -0.10311951751187236 -0.07030106035306466 -0.9921814985280433 1.9808484311979986
0.12218829281497538 0.04674092398920663 0.07125900509487176 -0.16937226013660808 -0.13986358783041017 -0.9755773748378047 1.823267498575276
0.11427799064646856 0.04702690041398734 0.07043887489431704 -0.18481917173756415 -0.1627922882693393 -0.9691958236797522 1.742686473864688
0.10375978778459236 0.05184383722083935 0.07451445384079916 -0.1017233520195586 -0.0927181196488592 -0.9904825641790393 1.6551003545610494
0.10679562595007117 0.053955450443511736 0.07957268897754147 -0.04444823567595785 -0.040843583501953766 -0.998176415285401 1.64009835315925
0.09690494186836472 0.055039183707594634 0.08102228168808899 -0.025873373135144102 -0.02445345163769172 -0.9993660977167541 1.6117096131585669
0.0914381503974914 0.05525532434880721 0.08144060357948672 -0.025033950996438042 -0.024202181183441723 -0.999393593997616 1.600078852694466
0.08750473043448416 0.05540105038899336 0.08404048844112015 -0.028542250697550925 -0.02799423714143966 -0.9992005117152347 1.5898293020334002
0.08032467252410054 0.05553975152690267 0.0824179882108733 -0.022407643802355878 -0.02229950223767088 -0.9995001899445437 1.5736796591856428
0.07558285147683892 0.055401204898102116 0.0794004039628003 -0.0232785690792296 -0.023453725204584278 -0.9994538663668532 1.5628166226455193
0.07043569071320192 0.05524938331038785 0.07929346333537679 -0.023854455360454076 -0.024585631395846876 -0.9994130836087367 1.5407581603479574
0.06506858574012031 0.055686948846620093 0.08217793021054143 -0.0007477664160343903 -0.00018147506459464417 -0.9999997039560501 1.4868754642485513
0.07144623595475404 0.0559694619769327 0.08417852261312812 -0.004388349728257949 -0.004396890380752227 -0.9999807046846665 1.5216918528175558
0.08048128980404247 0.05700935186344907 0.0881386157359002 0.021586678558649368 0.021802313349302677 -0.9995292264068243 1.5488711998311049
0.08840094100607303 0.06023141949294654 0.09606543360431394 0.1303569067063492 0.13317217647698662 -0.9824826961765456 1.5661696536910579
0.09564944128698756 0.05794838090334346 0.09321460687977441 0.0663124381324006 0.06641120668912755 -0.9955863660049943 1.5879191450112915
0.09895476633006814 0.05606070478610846 0.08601045623539945 -0.0022463240658653167 -0.0013659538875077926 -0.9999965440931126 1.6023836876534765
0.10407500224503231 0.055199417024448375 0.08513708043765485 -0.017597222319399912 -0.0162688718527252 -0.9997127895427173 1.6253127010138346
0.11189713256033991 0.05453947388927262 0.083994588111788 -0.01640152457740067 -0.014860317069844385 -0.9997550504839274 1.6633524501214412
0.11793814102344351 0.05387088812695959 0.08127059535170221 -0.013055910856682267 -0.011620509077809708 -0.9998472418127056 1.6882524869907023
0.12540030884676692 0.05282506412384921 0.08103217754253142 -0.008883608126502997 -0.007543520568470834 -0.9999320860958947 1.7476698440023537
0.1342529413805249 0.0509397323459465 0.08270372644497537 0.002261289609729243 0.00118838326684352 -0.9999967371519329 1.868460767046781
0.13027983904508986 0.05201458631887915 0.08561273041562502 0.0010992622616444775 0.0006938842796771355 -0.9999991550731864 1.8295469615662039
0.1234784544430473 0.05338556715728979 0.08618728579961163 -0.002057745378018188 -0.001788580065639082 -0.9999962833257472 1.7656326157792377
0.12171378597484307 0.05366243005072791 0.09032887417091466 -0.005223534015100205 -0.004393681456967699 -0.9999767048564921 1.7530141423704897
0.12689752801774787 0.05283913093654388 0.09036627851449854 0.0014486718636596819 0.0010620307675840066 -0.9999983867189388 1.785680125277674
0.13460873357090278 0.0507162940150001 0.08911404786890459 0.0012014021722374134 0.0008359747841715933 -0.9999989288889167 1.8839213483327846
0.14018079937747852 0.048709628150263515 0.08625003605065765 0.005145001411634006 0.0032538331527884904 -0.9999814705934746 1.9777191063080402
0.1493106489548117 0.04283457955750822 0.08380125865712652 -0.000922070233445486 -0.0006427411214522527 0.9999993683349682 3.9919108140184165
0.14888197333100175 0.04330535929001175 0.08881315037993295 -0.0026163101218725578 -0.0013311609987857293 0.9999956914565888 4.028358069343306
0.15474504024607305 0.03601305980540604 0.08701983438180765 0.009592464865051133 0.002157227321253139 0.9999516643258799 3.7266949034345402
0.15863864223519222 0.027188485343562822 0.08179244645064482 0.013922342335815071 0.0022380655345353067 0.9999005747805865 3.5111197428299046
0.160315146340847 0.020080106324624983 0.08245409520194222 0.02186206880327697 0.0022631283625287766 0.9997584349219844 3.3785032923680247
0.15961943600427136 0.02422402765255928 0.08565666743489032 0.017244640108717502 0.002272715252720906 0.9998487171331975 3.421440244348467
0.16081764130410522 0.01838802127770036 0.08809616750835783 0.02440925205625511 0.00218849866407573 0.9996996543400681 3.3327819715101628
0.16125778330351917 0.01277676238119353 0.08538153300022588 0.0287000004252167 0.0014627732637111923 0.999586999850424 3.2503298258619373
0.16141286860044413 0.00729287191228728 0.08289751181540017 0.03121849937004456 0.000748998982850157 0.9995123032247307 3.1932398046221278
0.16139683290211543 0.0014131774043400092 0.08235002280218423 0.03200017404834032 -0.00013945311340152363 0.9994878535598645 3.1342005507546116
0.16125311724948002 -0.005596952458776464 0.08327017644693999 0.028714712635979352 -0.0008294469001384428 0.9995873034888314 3.081011443148429
0.16021245109789992 -0.01434804085677318 0.08262708604452962 0.02575146837113552 -0.0020167227583641353 0.999666341689089 2.9779190868797287
0.15868161166665276 -0.02084943912065634 0.08044752724719666 0.022406229402632413 -0.002959510663915465 0.9997445684676596 2.868550314081518
0.15633730799996756 -0.027790930669548373 0.08405132530976997 0.01639047776092404 -0.0033449498486235628 0.9998600719847147 2.705529440101742
0.15010292051282392 -0.03724275636085729 0.08035577038405675 0.0058379563087041075 -0.0012840168209754207 0.9999821346238847 2.366886804894023
0.1466432799475887 -0.04035927309777901 0.08562455482714967 0.0002456791302015031 0.0004219345177541721 0.9999998808065068 2.2236797808436575
0.1394622505654086 -0.0446277109227765 0.0837492651440512 -0.005373654103295877 0.00386201455136052 0.9999781041028765 2.0185725263704786
0.1327534248491432 -0.04696590778761255 0.08502027009118247 -0.0032535241544612995 0.0024174923314640093 0.9999917851219596 1.893406881930948
0.1272848998312542 -0.04825505555644944 0.08834978570807064 -0.0003753442882944329 0.0002519466272308001 0.9999998978197758 1.8148406409874114
0.12046593324997698 -0.04947075873963333 0.085932103562668 0.002290962244255402 -0.0020073603288704002 0.9999953609874924 1.7369758874941696
0.11547195264112504 -0.04981879341391393 0.08896724741941855 0.014648668430475697 -0.012938799372797134 0.9998089837483982 1.7056279862298593
0.12066028929338288 -0.04914798253266322 0.09033041599359691 0.01446598151458047 -0.01231061982294828 0.999819575732739 1.7357915640667942
0.11672512263347358 -0.05562723476221872 0.10127425009221112 -0.16231395186846584 0.15969153999487068 0.9737313762444487 1.6628527209588448
0.1134910846975911 -0.051359809620389336 0.11165518619295828 -0.06766889842716269 0.06517106346117212 0.9955770450713465 1.6659038968513207
0.11204825490289932 -0.050476213401040616 0.09987587109214542 -0.024868041186166943 0.02369989770906586 0.9994097735044135 1.6741963821733916
0.10832866161095085 -0.05332528518248062 0.0982894612433016 -0.08728417722757897 0.0843571473061158 0.9926053314908594 1.6312102670538338
0.10347365101076234 -0.051233027423596936 0.09853259301774524 -0.029634011012784928 0.028632280432285512 0.9991506482550773 1.6152236362735133
0.10168204413191984 -0.05086284798381991 0.10277878247292316 -0.023901672850204603 0.023210605984055988 0.9994448347982067 1.6027145229770188
0.1055753588151668 -0.050497411766966656 0.10556598325079732 -0.019790481953254935 0.018853249725043163 0.9996263761020231 1.621896569651177
0.11139425895235189 -0.049957295891978254 0.10371075909926628 -0.014788555969704133 0.013448564156316347 0.999800197406694 1.673945901757242
0.12139512342853391 -0.05516198972994999 0.10421836264514996 -0.17320910480794888 0.15992015863899134 0.9718148737658366 1.6854125186382745
0.12022309755611629 -0.05018762603338151 0.11371953411478267 -0.06490925317088679 0.05869657892090297 0.9961633904514762 1.7086171001616226
0.11895515281570965 -0.04918184541992564 0.10157985925112316 -0.013773461747030603 0.012781483386413823 0.9998234471315152 1.7186735912320847
0.1290627394858098 -0.050145338356151065 0.09974080826626722 -0.08528999697286092 0.0693985350015656 0.9939363459276483 1.7684691626341833
0.13464927061783621 -0.04710823134865143 0.09388320036942234 -0.024066785269128695 0.019593250970922533 0.9995183311791737 1.8682011846101945
0.14301979869038695 -0.04280385075358984 0.09227394988083897 -0.003227810543098353 0.0034726751379225884 0.9999887608200826 2.0571488481584788
0.1516691601381331 -0.03574994731754535 0.09356909035887245 0.0022820887203921746 -0.00017705603468241756 0.9999973803576852 2.388826040694603
0.1564183805940838 -0.02828021208161307 0.09025214348402293 0.011256699024163043 -0.002250739760946189 0.9999341082779445 2.6328754270415975
0.1594725109635948 -0.019437571732870154 0.08785863654752613 0.019742766341586247 -0.0026169747377963143 0.9998016676423396 2.825073324183362
0.15942866947655723 -0.020260846124976886 0.09253897058128263 0.018813817998134526 -0.0027784763416620925 0.9998191438062944 2.831298656503378
0.16080738817350945 -0.014640985445685768 0.09332491467451894 0.021067975577075484 -0.0022600656313142924 0.9997754910520791 2.920429776483666
0.16134575212242575 -0.008859308707406035 0.08891565620944475 0.026546736120796832 -0.0017169870420762345 0.9996460987553697 3.0036762020813565
0.16152852184840735 -0.0022632447433802677 0.08726832321028469 0.032953579262976915 -0.0009706604911229044 0.9994564119720128 3.076112171691134
0.16174895734748593 0.0039637553991977185 0.08808213141297896 0.03404344150092043 -6.11809067107747e-05 0.9994203521780362 3.1355726181666808
0.16172067819799416 0.010419656862530931 0.09022906349256692 0.030797896939433723 0.0008269698867316199 0.9995252901577399 3.197866418268499
0.16205976835903654 0.00873447295270296 0.09416325027031745 0.031171853534314224 0.0008722828056975969 0.9995136590712216 3.1985873362045965
0.16198511340585178 -0.0006813383729454631 0.09286142093436126 0.03301573582875807 -0.00039659510693477854 0.9994547533030231 3.1190381961208518
0.1623880276062277 0.0004490983377734485 0.09706697424801419 0.03097308673288499 -0.0005068818283032304 0.999520090327878 3.1091328883193774
0.1619100337009744 -0.007795216509087314 0.09758204483161162 0.028480279446149788 -0.0013942729689237164 0.9995933821737505 3.0401698696726838
0.1605173880980056 -0.01656390254331877 0.09729289347376817 0.022337596240841404 -0.0023085844334783455 0.9997478193184993 2.920199368912958
0.1583025993281275 -0.024341510291296792 0.09721310863808752 0.013777884076276867 -0.0022469667401048216 0.9999025557777366 2.774462036714647
0.1569813638101708 -0.027867576721869142 0.10236269588099843 0.007559185951461727 -0.0015231859218319634 0.9999702688642292 2.681769519845593
0.1495949784944189 -0.0380084537144143 0.09897524206474706 0.0016210161405437785 -2.7040858032779093e-05 0.9999986857868685 2.315218843863538
0.14016956684125403 -0.0455709447675372 0.09910406198317441 -0.04092100372276723 0.030273264182720673 0.9987036602166053 2.017308845065967
0.13660487691529322 -0.04568411218086249 0.1060083729918404 -0.024971027808067786 0.018923906710361423 0.9995090462447183 1.8791004631859856
0.13082942404173395 -0.0468335853509963 0.10283350376905068 -0.009506729225045599 0.007255342916299447 0.9999284884923564 1.8305124728234452
0.12524882578521346 -0.048210601108557675 0.10159003657700728 -0.008578586013458027 0.006967028637410326 0.9999389323223572 1.7725943747828794
0.12372168864155476 -0.04825851810579752 0.10662190883974734 -0.019857047256659568 0.016583698519838045 0.9996652832911874 1.7542809110380961
0.11803231505333739 -0.04911870629637744 0.10615648702247223 -0.01943979030754502 0.016648719045030475 0.9996724036938093 1.726806866070904
0.10900213935606973 -0.05028590405073271 0.11077609743100854 -0.03053185070360633 0.027931470581347182 0.9991434526852367 1.6685320882427306
0.10119574993589182 -0.05076790520485514 0.10846571962112975 -0.027841302529909198 0.026727079984532175 0.9992549850108022 1.6133492038015849
0.091504581039536 -0.05078862194935586 0.10275652436231282 -0.020941074999142634 0.021140891038201545 0.9995571690023494 1.5540521392243434
0.08481311168150728 -0.050530442570052896 0.10218308164176997 -0.02318478509028551 0.02462455569397913 0.999427884840718 1.5111886524408362
0.07678611236821772 -0.049683094106167794 0.09979276884628864 -0.015913655201448388 0.017608981736613256 0.9997182999927176 1.4603597422311605
0.07058003224841482 -0.049572474787320915 0.09715352885159317 -0.013250930515717569 0.01525161409093828 0.9997958797215004 1.424354171683683
0.07692785774668917 -0.049578128031779356 0.10512032357677137 -0.021514490377074744 0.024396717812379724 0.9994708234179716 1.44218184296141
0.07274924207220616 -0.04901307772254821 0.10760503929534027 -0.024929559288541833 0.028984048069495616 0.9992689538013199 1.4219425196761977
0.0727606007899607 -0.048753424985837554 0.11332498548882579 -0.02738927815265613 0.03190740863469236 0.9991154811714684 1.419774001566421
0.06639022236379147 -0.04774605035066808 0.11311912108060679 -0.030266824742059897 0.03641618139817329 0.9988782613774356 1.3893380222563823
0.05669814047072281 -0.04608173068845487 0.10688134818585178 -0.026924199869145935 0.03525753767272147 0.9990155121411592 1.3015708689488603
0.04741817541580674 -0.0454758291252333 0.09736016277303322 -0.055847288420052356 0.10144361446254965 0.99327250715043 1.0705922628113478
0.035862351005838115 -0.044360685335591996 0.10297430558065367 -0.19121090054986523 0.49182734533525596 0.8494376103583974 0.9599882028173525
0.037835916655354344 -0.036221128567237984 0.11599197459831737 -0.08903994279381866 0.23528024211335144 0.9678404291299036 0.7279481675582934
0.026931026776082518 -0.03542661561976635 0.1048515352948797 -0.18826628325418449 0.7087512671992363 0.6798731115679834 0.8074144808180679
0.03497256464878993 -0.03269082172493875 0.12536316393130958 -0.09013130226118854 0.32618396203240124 0.9409996659221231 0.637821481424649
0.03675332783468442 -0.03245615394504615 0.1094239358166068 -0.04240847333761157 0.14723556056163167 0.988191889814562 0.6157480943485328
0.03513955117859186 -0.0329045793483164 0.09855534804496358 -0.023432811177713394 0.08003872710151115 0.9965162846257355 0.5922323939031148
0.022671872448437137 -0.019784538342183078 0.09931359902310749 -0.0930626169557155 0.7985479127340536 0.5946936861893188 0.5584093749085698
0.028574942821050997 -0.018016133311569087 0.10934934408189698 -0.056974037508590085 0.4769297875830651 0.8770928894740524 0.33315659068798054
0.022006056710210338 -0.020451220429296858 0.104225712672689 -0.120710203305501 0.8647219798987421 0.48752942916089087 0.5731249192391157
0.029004339758941986 -0.017977936003920676 0.12045770742302585 -0.07056984977812213 0.5089310635426699 0.857909709039139 0.316355629710515
0.02968610856597055 -0.01579915898477986 0.10337742688497172 -0.035539282624947675 0.26553526759408974 0.9634458890120604 0.25878140614343004
0.019334126119472786 -0.006421817897585092 0.10121385809879743 -0.042116544425175116 0.9657965727589156 0.2558577275221812 0.5089341583402399
0.026501335909024953 -0.004081735747245486 0.11793203001184129 -0.036715532506887645 0.8417998264834357 0.5385397123752279 0.18254998261422883
0.028081960376467516 -0.004962769663228714 0.10312542481091401 -0.02143965015551195 0.47144258915965565 0.8816361077721631 0.11722248691598113
0.021134046982797264 0.009554151142126798 0.09667496926640198 0.04262441405452888 0.9952903391759357 -0.08706491870758774 0.35804556403254856
0.01821148733332425 0.018912454621446615 0.1064997302585839 0.0955265301509653 0.9682301432102505 -0.23109537385325282 0.6724898486001447
0.02650184335604624 0.015847698195002036 0.12879909562260208 0.07810924602546883 0.8136673089053787 -0.5760594206364581 0.28205688166396564
0.029245287087671594 0.018572126480062054 0.11836742154936976 0.04414675740925633 0.4351000119036158 -0.8992991957361697 0.23155817208439552
0.024188163551871325 0.026011349572637843 0.0969821122516113 0.11538662046368482 0.7948538189663205 -0.5957292457926044 0.44668275648698225
0.02243007516547677 0.032742275958067446 0.10581032896826444 0.1697636676501151 0.8594647290447163 -0.4821832397274645 0.7322300162534088
0.030190610651632678 0.028471264801672242 0.12749019640798265 0.09904206918434318 0.505618730061911 -0.8570533054263684 0.43131456891428827
0.03158732804005467 0.02669270257864033 0.11645258211392992 0.050330850105717195 0.26471152671123466 -0.9630132985342638 0.36960910524051516
0.025349978871674898 0.02778485050364231 0.10282510627891944 0.12275755841745326 0.7424977199848097 -0.6585041515956787 0.5008955812133982
0.029018661125216904 0.02213761741410927 0.11330928344603819 0.07222645399377298 0.4588284707335725 -0.8855844249916417 0.3099558769607549
0.029441227497119197 0.023993290843984282 0.09939410797299435 0.031127051047580186 0.20001908650208103 -0.9792974378236441 0.2965096069199975
0.0272349760004701 0.04013947364276127 0.10329854279545936 0.2390816711246991 0.6901576704135735 -0.6830244098870336 0.7845431582530191
0.03356901186702835 0.03502565346280117 0.1223164195299812 0.11564030182090225 0.34958228699188265 -0.9297416550936585 0.5463810550117961
0.03457609700468791 0.033648681399945896 0.10865940526072139 0.0522745124648033 0.17011743742999205 -0.984036296499687 0.5079682139924842
0.04040023135455453 0.05071981254523403 0.09804716815545846 0.20563182325567447 0.3530602864648311 -0.9127233904014505 0.9754775014372612
0.049295282115002066 0.05737085838852157 0.09987099653867852 0.22223140622286125 0.31298741564699406 -0.9233916177520919 1.2517410673418974
0.054979183941959914 0.052582858490414164 0.10937439627110816 0.08066390569228901 0.11205742244734272 -0.9904223686856649 1.2733026486341208
0.054753814532364574 0.0547368588534623 0.08654882514741426 0.032325041837750874 0.04379917279651538 -0.9985172628114791 1.3092251444408756
0.05915200842345796 0.057866132972636965 0.0939203139077808 0.14601333964127994 0.17734174262189828 -0.9732574227667768 1.388067297299449
0.06572407484766771 0.06169451155380326 0.10128534705018641 0.2233768476895696 0.2613862615599353 -0.9390314191676399 1.466348588164863
0.06867978580193207 0.05550114945119589 0.11424692190532834 0.08713645944688092 0.10207963061937025 -0.9909525651854761 1.4167923636721371
0.06830557566314142 0.05433972399038614 0.1026783088533375 0.045520929766132937 0.053577840562950604 -0.9975255685714718 1.4059478703162904
0.07396731371290574 0.06107661774681722 0.0997680106396411 0.18162037605041936 0.20174798565918672 -0.9624509282481704 1.4898608279071872
0.07405265097740897 0.05591043388076409 0.10468386462055318 0.06656155557524171 0.07438645372327082 -0.9950056355729247 1.4504531809913765
0.07460376325700059 0.05552052705243954 0.09725436547548515 0.03306663828892104 0.03722199431837198 -0.9987597912267158 1.445342453911775
0.08139615776179988 0.057698996212042754 0.096202752206806 0.0805448973921147 0.08606082729035579 -0.9930287274345054 1.4997405762606055
0.08663629852848073 0.05612382997526606 0.09630883660526154 0.020797759277176545 0.022297110246090233 -0.9995350379470059 1.5257501514475937
0.10004638570456767 0.057474260649762604 0.09314200662268549 0.054146636604603886 0.05272481515786222 -0.9971400280858141 1.5871715604083614
0.10687818337190806 0.055786593096214046 0.09039709198295287 0.0021100153777185346 0.002871964215872779 -0.9999936498081617 1.6369916764853554
0.11319905669961733 0.05482976987501395 0.08910852375649427 -0.006964525363846989 -0.005881895140118598 -0.9999584484847442 1.6775675955298706
0.1149448000496851 0.0594613728961233 0.09963015309684357 0.14466860722216557 0.13556781175768243 -0.9801491531902848 1.66974847602071
0.11393211122385166 0.05579400006493404 0.10304450478274307 0.05941364059217619 0.054765283585895684 -0.9967300452105075 1.6862407215506647
0.11016088819804079 0.05517539272751976 0.09681551397494598 0.004617554262735277 0.004577218692460751 -0.9999788634074582 1.6785067719396995
0.10441418876446083 0.055690227832555686 0.09658026582438878 0.010489986653289865 0.010140217392282594 -0.9998935624211464 1.6287289595804688
0.09564985632524463 0.056116646734439786 0.09476074777246721 0.0072593165968316544 0.0071331407833696795 -0.9999482089714005 1.5940975315527794
0.0905134907674503 0.05548169895345741 0.09951670454568338 0.015035619261525907 0.015359102886538986 -0.9997689873725545 1.55917644015405
0.08331964035939946 0.05534388633182302 0.0997245759366532 0.020228405286988445 0.02146515079016063 -0.9995649348196949 1.5197072184213476
0.0833778384998441 0.055112751313971156 0.10412849019200184 0.019195593032283374 0.020375145693855817 -0.999608114535938 1.513604220498796
0.0895279502543588 0.05531472913064496 0.10485317103042627 0.018062466804316453 0.018716294523544553 -0.999661666571371 1.536262954102214
0.09856606851136286 0.05553751885095146 0.10137614891412088 0.020318061821021863 0.019869145513344108 -0.9995961151487168 1.5910445072358441
0.1027627779511231 0.055284403304413844 0.10439475573736619 0.021461828087535415 0.02046142623008223 -0.9995602633017041 1.6174149741843586
0.10767991864031572 0.05509850758044939 0.10287331329064169 0.02403789990024124 0.022139096043853602 -0.9994658772538195 1.650936535339555
0.1184835701694106 0.05398591906109339 0.1008080006534152 0.020527072300477598 0.017980982348311983 -0.9996275924445865 1.7058636061581085
0.12456310375532843 0.056729107604519935 0.10060355787916311 0.11792128643686428 0.10191504317452531 -0.9877792740181429 1.7253099984214608
0.12635143491442982 0.05337382488262636 0.1025170526636224 0.04844672263362016 0.041210658171682575 -0.9979752485503424 1.758833532200582
0.13232676474107022 0.052199575504793407 0.09642208805284541 0.030625824210421558 0.024403079696895844 -0.9992329801366344 1.828146668598825
0.13803107711795679 0.050292793614172826 0.0980910113420352 0.03368417572643806 0.024129372936851187 -0.9991412060701453 1.904637567040388
0.14682007633164354 0.045086672219632855 0.09523174830960626 -0.009471644203977317 -0.006375510009999776 0.9999348182897652 4.097554617216197
0.14743068272696913 0.044639096123739716 0.0994043819489495 -0.010101093193723707 -0.005601727568563838 0.999933292057295 4.087818864431138
0.1548747539818157 0.03634978307009854 0.09356981771649653 0.002209917761169836 -0.00024471388576190076 0.9999975281862465 3.7477032320897354
0.15592825368992752 0.03461146334360045 0.09936315988194666 0.004139281501732005 0.0009294131126346429 0.9999910012294687 3.7056544714332262
0.1587247492569564 0.028550550416946253 0.09759357908397172 0.01103002671130873 0.001996465563158024 0.9999371743444698 3.554141040674331
0.1606788837411227 0.021541244525734155 0.09474335803667781 0.017554000449359085 0.002112663618138543 0.9998436846430848 3.410782792811476
0.16173976677375362 0.015600885788985202 0.09753652870757074 0.024154451276772602 0.001842794078396669 0.9997065402374351 3.309230356473578
0.1619688469982908 0.015291063394732103 0.10202937085474215 0.024744337020824455 0.0018461251342042568 0.9996921074047694 3.294626825643003
0.16269722509237877 0.009111993809825974 0.10340934730578147 0.026816910437680978 0.0011642588097406515 0.9996396839941888 3.231147631524009
0.16255847999074857 -0.002146684564642701 0.10076656419862709 0.02904126951770024 -0.0004485683615413714 0.9995781127311788 3.1144099908652145
0.16222179841008788 -0.008194729296693447 0.10346573025182462 0.026278573236254092 -0.0014170640883835453 0.9996536542813397 3.031537959569167
0.16122531492079464 -0.01434896780633596 0.10161971852030764 0.022425631415659664 -0.00212707247532566 0.9997462511148986 2.9444393354582834
0.15998814617122947 -0.020178597440536312 0.10465166537605271 0.016205939052356448 -0.002288675615231801 0.999866055781153 2.840520859245991
0.16151857771424788 -0.014785576961512822 0.10844859998869237 0.019459477357993752 -0.002228434473723086 0.9998081630096597 2.9046476930351894
0.1626108434268866 -0.007854314816014958 0.10894516866223 0.025262267662164602 -0.0017199896396277495 0.9996793783349762 2.9955011046757085
0.1629660584642136 -0.0014527566350726784 0.10595733005356496 0.026383247175147086 -0.0008590397426546662 0.9996515324447893 3.072731539223108
0.16324369593957572 0.0035385353056124062 0.10870951370668455 0.02671203985932778 4.186008007785408e-05 0.9996431689229348 3.143701407010534
0.16303130220017373 0.009384084514758275 0.1097333137568629 0.026104953923942152 0.0008830037392498157 0.9996588176398111 3.209947035353311
0.16208952558130654 0.017460315279451778 0.11097279665804091 0.023164492145427682 0.0019114114837544688 0.9997298399116554 3.3126656480681755
0.15988876911859032 0.025223560257666748 0.1034093648469522 0.018118396945661423 0.002636250643185554 0.9998323728879086 3.448641636767032
0.1577396293368112 0.03110365250177905 0.1070535241650221 0.011308858406151623 0.0023495724611949037 0.9999332923904469 3.5925568003619492
0.15286449004468544 0.03916231247932799 0.10417554035183776 -0.0007501050632774983 -0.001001490637620922 0.999999217179142 3.837067881519791
0.1424765901285447 0.04755628806454951 0.10406528951835495 0.013048671159454066 0.00958047481605535 -0.9998689647565182 2.040560294260765
0.13392335077686518 0.0511739153893418 0.10089654695834639 0.025936268268243693 0.020790913038189997 -0.9994473712624173 1.8596689801906616
0.13026471730499564 0.05145464830058982 0.10559318892153453 0.023114300472030433 0.018635845692985174 -0.9995591199969096 1.8040609089649102
0.12315008561338751 0.05284098882611028 0.10658535432989857 0.02461306659497222 0.020482280733302376 -0.9994872050850645 1.76110019999664
0.11618343229286329 0.05395801996899608 0.10572299624455746 0.023634910633927968 0.02034772156191156 -0.9995135623024657 1.7224948100373185
0.11100105291332797 0.054571683702763135 0.10776523949826644 0.025762625974411445 0.02292422064133655 -0.9994052067159198 1.6896974203691224
0.11239239771932401 0.05422905378697673 0.11198498686865288 0.027558147212299645 0.02455026034153684 -0.9993186845243053 1.6872896780603337
0.11777890581281583 0.05358797278483284 0.11103236175278082 0.028091348325265865 0.02439948626346871 -0.999307530852914 1.711512405182195
0.12318339653957094 0.052656104397938455 0.11160146220377158 0.027270129904987037 0.02305368451137709 -0.9993622304477064 1.7383809342179122
0.13019279341419904 0.05130795909423982 0.11108179474639447 0.026849415712432448 0.021843091517871706 -0.9994008146028514 1.776008834005868
0.13910784198704998 0.048987999835643566 0.11071198234787816 0.0243622597400391 0.017603304545234746 -0.9995481999230685 1.894673092273542
0.13866719701315144 0.048941563330122895 0.11511766547607835 0.02480173015347796 0.017982445142815977 -0.999530642775938 1.8891197708477905
0.13285367165520084 0.050467854608623186 0.11665739453196597 0.02928499105808218 0.023000148126722294 -0.9993064507371484 1.8154647851281425
0.12815225733726515 0.05132352646389992 0.11928065730725859 0.029775203640856646 0.024146750650086545 -0.999264915666105 1.7811780588183665
0.12079112630983947 0.05283773718503564 0.11814303058703451 0.03260233273910606 0.0275917776382268 -0.9990874745019732 1.7402264441318973
0.1147886308723953 0.05370905172104162 0.1184513958152166 0.033392678790747365 0.02911029828582728 -0.999018277879283 1.7098184238393745
0.10821869247519299 0.05463409065299553 0.11370156294386638 0.029758568430196298 0.026834135180927223 -0.9991968558767972 1.6737083088943847
0.10064232602592674 0.055292502438799726 0.10952689761360654 0.026214094848599625 0.02468549846409042 -0.9993515134310088 1.6288177554340066
0.09634756610971218 0.055526811541985764 0.10561062894125361 0.024289835572687574 0.023719430783181124 -0.9994235300868063 1.5935313086379903
0.09455266883075149 0.05536110374413206 0.11079272533300386 0.025696592490915528 0.025554191569214006 -0.9993431184671258 1.5770954881824237
0.08863136230101831 0.05537656823898059 0.10963475451551255 0.026774366624327004 0.027567939994344648 -0.9992612981479541 1.543329187080729
0.08292568205538124 0.05499829682749877 0.1114512841865516 0.027571909271308984 0.02946373838808384 -0.9991855072704634 1.5065678703845997
0.07745485575979774 0.05444757749073018 0.11108222236148746 0.025686292126149365 0.028242541859537108 -0.9992710209078027 1.4765873676068175
0.07267370655625618 0.053882406196128184 0.10811857322984161 0.023957167393637183 0.027282168436997024 -0.9993406513375951 1.4411006115866252
0.06606249609514468 0.05384015067129627 0.09809721230113792 0.017803609695880098 0.021333491087556302 -0.9996138822764588 1.3829981522381902
0.06058721806829099 0.054688162116767414 0.09576377411863962 0.045393383303402 0.055958455028743775 -0.9974006677675058 1.3692911147892302
0.05009886246878747 0.053430781404232665 0.09811193472751191 0.11928529764602357 0.193945373961279 -0.9737331306289825 1.1872751011576144
0.05082156523055683 0.05019560177571325 0.09988055092025465 0.04807351645107282 0.07695687472442544 -0.9958747795022612 1.1576848379530769
0.04189765815876587 0.04687278672622137 0.09672413655055105 0.036274037368811886 0.07628992722325635 -0.9964256325573105 0.8420406880921866
0.03421586621492271 0.03844301953386235 0.09608612435166933 0.025148181334866477 0.07148820646461333 -0.9971243680263869 0.5944323161087336
0.03408195366617958 0.030940570779530614 0.10106008327174845 0.017671168753347143 0.06773373676993306 -0.9975469265643959 0.46166761402911544
0.026728382806647664 0.021833392492416455 0.09694908477546414 0.03886171669545991 0.34860822744004055 -0.9364625303430963 0.2940679569390901
0.020100233059841797 0.013971091283597463 0.10286399089061707 0.045143349194625045 0.9580510406880766 -0.28301993120624136 0.4988174234601351
0.026745768901856076 0.011443157034118754 0.11840438989484775 0.03877152653117384 0.7933189686253203 -0.6075703932464949 0.20562070375009078
0.028185166939520025 0.009990555254979883 0.10418765859405803 0.025538461531805265 0.5448261176764119 -0.8381600613726694 0.1132291066263076
0.024251487109788042 0.006678888073435286 0.0975451668426024 0.02700679781658079 0.9131399281036735 -0.40675066634796353 0.16336138122868296
0.022163394972930666 -0.0006610005310651055 0.10030523000806373 -0.025778428696288536 0.9963720005281549 0.08110677639675336 0.3262268172441283
0.026867472027797417 -0.0016200608011237292 0.10759068834645127 -0.02388243626242731 0.9153124312109006 0.4020357975466385 0.11955768431747389
0.020116237292586988 -0.010418950596138612 0.10386373031066443 -0.08233002097379187 0.9590216263057144 0.27110752096612434 0.49964002719845213
0.027666062382502927 -0.011179583732395044 0.12170036978267801 -0.05736268061163095 0.6533957236093834 0.7548400832242669 0.2354678640489702
0.028895555070730754 -0.01012494296779551 0.107591963505056 -0.02727706370015364 0.31549945685213276 0.9485336338379927 0.17749242926741893
0.027622715915671364 -0.011104311338890116 0.0987392865589882 -0.013693763490668675 0.15508758126205663 0.987805812384067 0.17932106216328156
0.028771282914260708 -0.019039011783098542 0.09778737759431362 -0.01305462956534509 0.09218394783058659 0.9956564148386126 0.28521342911715725
0.03264536047363569 -0.022790331934849865 0.10211496728654358 -0.015842368503325512 0.08680756752844641 0.9960991243746774 0.3583969238364207
0.03839970509612845 -0.034751527466108115 0.10017277679240644 -0.021316257172440987 0.05954461179696205 0.997998024239581 0.6560576231405228
0.04296314478312883 -0.038369066472198454 0.10447382966656009 -0.01783988900004319 0.04096020324951942 0.9990015015555402 0.8202029393736249
0.04695877177656645 -0.04124116414892094 0.11094250320775573 -0.024715705612238667 0.045591106717249835 0.9986543871051613 0.977115872755332
0.046752871691458905 -0.040864716197777956 0.11588748973088252 -0.026533483184846517 0.04977554659381456 0.9984079172519449 0.9764640594854194
0.049265440001382936 -0.04217392461022888 0.12108246576289917 -0.029748055586917378 0.04989098987921792 0.9983115457199069 1.0712062995378135
0.05657478274923675 -0.04513162688898155 0.11887678825316089 -0.027090683044842027 0.03791605098298322 0.9989136439002221 1.2451989323761354
0.05666600063550021 -0.04489959834333838 0.12320857515917887 -0.026408813649479945 0.03865161678969134 0.9989037126175726 1.200647405457031
0.0516868140633892 -0.043269524455450625 0.12643067853809073 -0.037506205746490995 0.05865144845862508 0.9975737026025732 1.1462155480432517
0.04849595205677777 -0.04112877280162554 0.13068146868938038 -0.032158109186175406 0.05568553126619894 0.9979303470789787 1.0449306649593237
0.039309533955116965 -0.033934845241296085 0.11927264304692796 -0.028927039281307094 0.07526724294575451 0.9967437326302898 0.717601101485103
0.034050834391571624 -0.025631772545729195 0.11034258151856731 -0.020638848470646592 0.07273808994573962 0.9971375071698242 0.49186045646409454
0.03265537239313594 -0.022137544926778798 0.11363148053321878 -0.019973479353438194 0.09601574074190859 0.9951793997326817 0.3968303078792589
0.03007727679043342 -0.01318500620559577 0.11210450223597988 -0.017369864166800513 0.13401222688769238 0.9908274374801237 0.24778508978493838
0.028891642561441166 -0.005858643795627772 0.11066777199703738 -0.014862417439045122 0.19910666231850596 0.979865116007429 0.14136609873849781
0.027646247752862507 0.0027436776889079428 0.09961897308052202 -0.033538506167669464 0.8631329891127762 -0.5038616989901944 0.013973964310712576
0.026701782347636656 0.00946472875480671 0.09795639991287086 0.004110429518498994 0.1532701818589818 -0.9881757716732829 0.07774003033752923
0.02847439989806171 0.016637709380797096 0.09920947811306059 0.007370482226492239 0.08821351781518079 -0.9960743201520756 0.16555355326220156
0.03108907992237558 0.022275340527684685 0.10363179999029133 0.013683680219054792 0.09988129007072805 -0.9949052642284439 0.25829916664787966
0.029895183016318827 0.016556443273521737 0.10544365724091034 0.010405733538882567 0.09911496739034331 -0.9950215796397227 0.1990558390270997
0.029008609833638323 0.010969515399313245 0.11035984418078039 0.014413797120069521 0.2488409806758496 -0.9684370959380184 0.12878088559335266
0.02860895562942327 0.004638694026618682 0.1098911443328634 0.012979905647654855 0.36881050706529467 -0.9294139723113799 0.07622486365335343
0.028650140315177822 0.005102265739966451 0.11453546221690498 0.014184283513855415 0.42037439244087055 -0.9072398670038522 0.07456260272640487
0.028818288081124972 0.0065069859065978106 0.11951439685153521 0.016010372920278737 0.49290644167787234 -0.8699350020038344 0.07477704371654265
0.028638756662035143 0.0017351934473531733 0.12196377766183081 0.006703570047777169 0.9272287447628275 -0.3744354644450308 0.04357070290834224
0.02900645957605292 0.005797867775816007 0.12503308913341557 0.014810014076317515 0.5969557040206984 -0.8021374887886813 0.06316304225367142
0.02879729063601726 -0.00031147382099373566 0.12778884643312674 -0.013679785645317378 0.8855808647037824 0.4642837446381247 0.05226969795961259
0.02910994361504633 -0.005750166237450994 0.12457009674343066 -0.02005045571301583 0.4227056245200699 0.9060452164350287 0.1034856700771967
0.03043858067094975 -0.01388407326292892 0.1240781761865342 -0.0230017525579402 0.21847264935830668 0.9755719455076727 0.21114669473388642
0.03305530142376944 -0.02220926130643953 0.12336513012466561 -0.021080385067317773 0.11887452917985666 0.992685480742859 0.35645417459926393
0.03730748083285282 -0.030440893182697944 0.12744831912675167 -0.029733674205310454 0.09977153204382619 0.9945660108871005 0.5593001575773148
0.035821997316139824 -0.027516027530218198 0.13172314562375362 -0.029559389394155082 0.11285137905285918 0.9931720942236107 0.5105398330821201
0.032738927129032834 -0.021070809111056167 0.1307546701405791 -0.029294983503920756 0.1504659126160048 0.9881810629040296 0.38866717197939277
0.03266237482350522 -0.020195441099940394 0.13525921304848568 -0.029814180601179532 0.16525985515341854 0.9857993177669334 0.3621699629699746
0.03077671812161042 -0.014052441063160311 0.13424932968784892 -0.0299478375925884 0.23097091693000124 0.9724996465583122 0.266908932938726
0.029629917663963903 -0.007938731949222524 0.13167747410684535 -0.02655438315362032 0.3187349467025446 0.9474718457483878 0.1716045686325625
0.029091550148822965 -0.0018941368020777057 0.13459832627406462 -0.022536087287070843 0.6198224075392718 0.7844184520280043 0.09412359746407523
0.029226573231722962 0.004916772732263476 0.1349537201169079 0.010522935024747191 0.9151370399660913 -0.40300554080628376 0.06032373726446889
0.02945092037044599 0.010619582002346428 0.13068829153104863 0.022205081049042754 0.4638567459513643 -0.8856318950958221 0.11061999389643457
0.0305511977717033 0.018573456691149775 0.12320557649979644 0.020681188245686523 0.21079663394913575 -0.9773111416373296 0.20818021928180902
0.035186469317907275 0.03231494006595374 0.11335200231233322 0.01828265409323083 0.08048987544410087 -0.9965877404976945 0.4642116115681687
0.037428501636641104 0.03690911940217416 0.10372337116915747 0.019506718954958223 0.0656459672321101 -0.997652291583482 0.581412395724728
0.04071693165783616 0.04083243026470879 0.10666530680503386 0.017746284477994267 0.04838883275055761 -0.9986709118885282 0.708674277773521
0.04733203164011962 0.04696712486037266 0.1036203402546467 0.023428612252944684 0.042187981456943954 -0.9988349585134122 0.9878574615556602
0.05767680083867274 0.05139200822516365 0.10042207890253914 0.023431950482822712 0.03190962580266076 -0.9992160524519733 1.2562310719232312
0.06279629086903388 0.05232287965672248 0.10373269090411402 0.022655919742716718 0.029160043934160388 -0.9993179679853502 1.3190601367085757
0.06244269354805279 0.05197328254300999 0.10940141583846462 0.024243293551839268 0.030686892734321587 -0.9992349960505145 1.336945283036949
0.05703412423164856 0.050599380825881723 0.11277938591518945 0.022820372953609967 0.02979927778322804 -0.9992953685581937 1.3071818841615408
0.04693078424920878 0.04613666639626384 0.11227687426878767 0.02163444148825037 0.039866773239490116 -0.9989707660051732 0.9888254969623239
0.0442836860168727 0.04379194838034265 0.11917041827055987 0.02527489170648855 0.052642308175768496 -0.9982935275955428 0.9003564379684297
0.05159616070266959 0.048312569856925856 0.12202747417009194 0.02883266407147489 0.04445272791100941 -0.9985953296825553 1.1423659196706228
0.059567624048634985 0.05093170061330625 0.11977114246013212 0.02685170674052797 0.03484056525786397 -0.9990320920058743 1.314987266602863
0.06395876656306157 0.05200918371992683 0.11633113034197473 0.025135814258347988 0.031582780219097245 -0.9991850273273725 1.3461130867129822
0.07070482772774511 0.053099788062869184 0.11918184872719106 0.026331162285965087 0.031135897361059293 -0.9991682670042078 1.4038136668980359
0.07721420233733488 0.05420351910495261 0.11599328238790943 0.029005095333137807 0.03282503438414352 -0.9990401501253067 1.4465494327379527
0.08290352826077113 0.05470100346211945 0.11761308724461153 0.029202852775422134 0.031635106729140314 -0.9990727768346074 1.4906045421290732
0.08828756022444427 0.055120229178451365 0.11506949471385758 0.028244851746213773 0.029402924235671576 -0.9991685025040702 1.5313312330698308
0.09183782394432337 0.05500244590595256 0.11863580225053906 0.028603745997980656 0.029087668190523747 -0.9991675201256899 1.5544284717426045
0.1003194853304422 0.055125541848807406 0.1141238280239878 0.028830982823402455 0.027910443396000958 -0.9991945664278181 1.6032064380980253
0.09790617906967039 0.055066844434105144 0.11676878527124405 0.029455406132251602 0.028550612592489713 -0.9991582665274695 1.6025789838156081
0.10616883494359941 0.05451622049791751 0.1196874333410679 0.0325620294472307 0.03023750796693833 -0.9990122158163167 1.643749135943704
0.10158430039115143 0.05462791779053878 0.12312584046033805 0.03377038430448785 0.03183499654329339 -0.9989224665303188 1.6307450589194075
0.0962554265578671 0.054828831067370985 0.12340472702830751 0.03420342567666779 0.033069916877907085 -0.9988676119835246 1.606084907577865
0.08865564690769519 0.054716995817495034 0.1227909360625789 0.03198960530995321 0.032540404001563446 -0.9989583511135629 1.5539518220446014
0.07874755821424397 0.05413678328516341 0.12249321126479751 0.031893214923935244 0.034536874497792525 -0.9988944023978408 1.4926927697964167
0.08148036577495689 0.05424224704157487 0.1258866839392575 0.03606084622333802 0.03893029960889024 -0.9985910309741515 1.4956278407355992
0.07281787934343435 0.05330139624316269 0.1250116787444619 0.03348184401729765 0.03805541248437082 -0.9987145496596341 1.443241314224744
0.06626883702869656 0.052352587404691175 0.12253392020533221 0.031533175830626294 0.037809434676436646 -0.9987873174362413 1.3902200537080784
0.06253332555853854 0.05109692356274709 0.12731108907636013 0.027038839193699413 0.03280515722187178 -0.9990959527666528 1.3785897246810557
0.05419628436390154 0.04913786608565753 0.1274172880418831 0.030343400598543933 0.043738275623317995 -0.998582115444501 1.2215511478593468
0.049279105696203626 0.04655099895403981 0.13202629798633872 0.029883176950829746 0.05130955102907434 -0.9982356063117165 1.0576646823162474
0.04095291280946529 0.04022606647593727 0.125771282663923 0.029265721965409094 0.07208414749420972 -0.996969103431935 0.7726485965040659
0.0397252172793951 0.038435814036433535 0.12943104665713964 0.02959427740863997 0.08127932611071219 -0.9962519008221007 0.7010167285798177
0.03545288930812318 0.03148992846596509 0.13228454375664941 0.028964333587369072 0.11146216742636929 -0.9933464917200119 0.5109984737983799
0.03195786390893947 0.023228869230405524 0.12864787902056998 0.026218063087825826 0.14777308369372655 -0.9886737221670099 0.346362283725651
0.03161956450253279 0.02131840011704487 0.1329525942796715 0.02599710529654384 0.17535403371715258 -0.9841621377472942 0.296846986997878
0.03307689337884177 0.025358901989057794 0.1376078493666895 0.029450746671327285 0.1671403495769065 -0.9854931542450261 0.3506001542038009
0.031175557355018247 0.018634631263626668 0.1382146844507787 0.027276238875792832 0.21727221342744354 -0.975729876587332 0.25233489890602634
0.030262851050284048 0.012481539820649685 0.14107045813318775 0.025427671693518894 0.3242404475180823 -0.9456328916157265 0.16339766939985415
0.02935213408747556 0.004256023594761398 0.13994359609249032 0.021214831051564766 0.6478562442456206 -0.7614671481655739 0.08937661003858251
0.02944300694599089 -0.004727502825816373 0.138316504388541 -0.024948721043566095 0.6380354821665324 0.7696026798386366 0.09579541906202191
0.03056414734385696 -0.011310287720456441 0.14085638335546494 -0.030691914814673805 0.3357210439327675 0.9414613040511551 0.189631092423138
0.032349940766311584 -0.01824758595454924 0.1411656609036225 -0.03199556070371077 0.215240311410355 0.976036829448166 0.30015765016974083
0.0352581614290959 -0.026013548792627367 0.13735181680342573 -0.03216024971014896 0.13602659766305333 0.9901830553320911 0.46783408779297814
0.042164598833992595 -0.03576253576746734 0.13640854497708593 -0.032969885077272866 0.08153324184838395 0.9961251513498113 0.7678048913908239
0.040605046083712355 -0.03363882088415889 0.14082844651671983 -0.03350459236155427 0.09164315861084264 0.9952281013770229 0.7040409087224111
0.04902558135673403 -0.040759040429314886 0.13971202749122935 -0.029444091261213053 0.05291427105013 0.998164878869736 1.0328316233961612
0.05660122337926452 -0.044278062349074374 0.134301867423161 -0.02853085044764287 0.03966119012093409 0.9988057772014164 1.2558653782438587
0.06376444333424644 -0.0466641385434519 0.12373259543080387 -0.029159714784918397 0.036782614766702165 0.9988977676842543 1.3429183442642711
0.06959941577897712 -0.04798273541149129 0.11932736938828259 -0.030346936909666382 0.03640520374030659 0.9988762308518646 1.390183551553405
0.07555043999442992 -0.04896001216093829 0.11761543295026723 -0.030283802356636746 0.0350966264690773 0.9989249812299791 1.4245601847844491
0.08172002003674846 -0.04997554945785665 0.11290372411040997 -0.02917993852756532 0.03254332224055326 0.9990442749773781 1.4629490276522987
0.0871604559057988 -0.05047195157562102 0.10727678543279223 -0.022621559573322167 0.02414768695381937 0.9994524272106456 1.5115106586693257
0.0932060532527788 -0.05074015026965729 0.10683233459941675 -0.023639974758157996 0.024457337785898908 0.999421327680103 1.5381012347892349
0.09375500314019536 -0.0505090206409713 0.11340282775574656 -0.02622112659434344 0.02653560536052403 0.999303914816846 1.5588127194415642
0.09907900644632786 -0.050481548314369844 0.11400008859377787 -0.026564867427257822 0.02632335340606865 0.9993004497567443 1.5798582578460687
0.1038741490105151 -0.050234310080411376 0.11669501777651713 -0.029037612405792557 0.027756859580143897 0.9991928611694637 1.6150972117904079
0.10922248670538043 -0.049788025082312705 0.11773945953226164 -0.027404525555912794 0.02532568584399717 0.9993035582922671 1.6503360743353215
0.11469289346136667 -0.04927875828135632 0.11507958719749277 -0.023702363991237325 0.021328538645370366 0.9994915164124605 1.6779649623108441
0.11909616473381539 -0.0485964999037623 0.11764473860496394 -0.024829263593992037 0.021777497581335483 0.9994544753356577 1.701849662465088
0.12826754033148857 -0.04719981789941785 0.11242481724198089 -0.021633062926923827 0.01793817880759516 0.9996050381673085 1.7602290297671137
