0.08679550704698186 -0.051696056503244374 0.16120539384474783 0.5406977146853755 0.021563346028354753 0.8409405469128443 3.2096380769867308
0.08700348009139239 -0.04762325658252014 0.16138396825436513 0.5389586923404375 0.009582271449036292 0.8422776905656251 3.1717461711746706
0.08679430104287071 -0.044242075309314954 0.16141105135937728 0.5401014303783509 0.013025004515076759 0.8414991349731986 3.182229589185584
0.08453229335743588 -0.03839859676413101 0.16109562162796984 0.5539110419406281 0.011709299447172158 0.832493513441819 3.1768879122867473
0.08330676105130848 -0.03467926781262282 0.1611167188991971 0.5630072896474325 0.010103181564337269 0.8263901726945512 3.1713305672264522
0.07843883557042897 -0.029780148492893146 0.16100227471661846 0.60057282212764 0.02175396513839644 0.7992740770989633 3.1984256135759113
0.07881029983672382 -0.02184500778781457 0.1614468182879868 0.6067619594174564 -0.008473895385127455 0.7948384223858902 3.1195842762661017
0.07819385545717872 -0.017109131899033424 0.16165872663307618 0.618260830509101 -0.011497261995123539 0.7858888969980502 3.1125113994412192
0.07782323674356789 -0.01190114810735158 0.16160270713117744 0.6216170676934393 -0.03906745949995073 0.7823464416487302 3.043645523755551
0.07658996127919863 -0.0070752593674379 0.16167294009221622 0.6333543750104437 -0.06677102804888609 0.7709759175670958 2.9802452512028013
0.09515097897102168 -0.007714915108715917 0.1622789326343988 -0.4304185278550174 -0.7489634304731806 -0.5037793869274177 1.8043490467323613
0.0757598609831507 -0.0011309571366580893 0.16209312112720992 0.6589859825721117 0.12090753215856204 0.7423737895701835 3.3873248185788514
0.09535898607453543 -0.0036545114221899822 0.1626581582735522 -0.3883865859166701 -0.8139857574516485 -0.4319525975681351 1.7114395061305245
0.07494055932347993 0.002369814306741731 0.16262801607166974 0.6749792599434645 0.13771190223563384 0.7248713200484734 3.433212484560384
0.09517820048593563 -0.0011412187928301315 0.16248084741627222 -0.40002336084677986 -0.8078023463821025 -0.43293958002984295 1.6881270768257406
0.07996905464021989 0.014686612017004143 0.16395989112022263 0.5353459093481737 -0.6518374092099148 0.5371338281086782 1.9356256046615778
0.09855926227291509 0.008660470682963153 0.16260971215307676 0.09335395571032237 -0.9920203525749707 0.08473876934595055 1.4898072771250093
0.07965264681719547 0.018940252004891567 0.16292530644919773 0.6268271113124873 -0.42508008661304547 0.6529890446927027 2.2860202642605487
0.10013952685342888 0.010414383677571979 0.16283636327105785 0.118617899622331 -0.9857282339093744 0.1194556100109682 1.516231048989855
0.08052282186819791 0.02065654037366522 0.16297879993449446 0.6400107470993539 -0.37574491959527073 0.6702253344925649 2.381326063568251
0.10117858779042052 0.015126998088902993 0.16250866938274536 0.17665321676781506 -0.9675499994861336 0.18066720648741516 1.5190753156552346
0.08388867591559199 0.009408783270653092 0.16443079547570327 -0.5864417645965386 -0.559252751984747 -0.5859372117679378 2.084836703726116
0.09784570254215304 0.0038936216784185695 0.16290040898347005 -0.2943008583700438 -0.9065601575482406 -0.3025486498214212 1.5975637564944916
0.07962879075377623 0.015399270140939768 0.16281298914873257 0.6814453748050059 0.0710755425901353 0.7284095471658666 3.2936133378216317
0.09361100352174491 0.006258409076475347 0.16101361525842559 -0.4515948109372151 -0.731809411579542 -0.5104087693782162 1.6617471532997343
0.09405625494136723 0.0037008877485757313 0.1615820873066603 -0.2239318137228957 -0.9394426886503419 -0.25942624682979004 1.4378601035291354
0.07878836835012493 0.00939805232697261 0.16155418949244443 0.6557510398622564 0.12051661899371059 0.7452961279021207 3.4516672353037414
0.07860235187337583 0.005980039758868448 0.16203939056218164 0.6520972856453855 -0.05042503325643438 0.756456506400076 3.0325709989335214
0.08141137045202523 0.01060552592578205 0.16191577155023132 0.6414738005421948 -0.10059538102789786 0.760520829782988 2.905428021334741
0.08275705903215086 0.014368695066021404 0.16181658530926823 0.6382833081722824 -0.11309387935276452 0.7614487461159742 2.8736575960138513
0.08287976858192692 0.017631577548327837 0.16196735742440144 0.644667247347091 -0.11334784345887475 0.756013496295633 2.877363212908197
0.08310498810688961 0.02118077436142446 0.16209380671332765 0.6503911630060965 -0.12607673962282875 0.7490634090713916 2.8533866710398867
0.10196821523893615 0.017560162171294004 0.1621672830911734 -0.4921230995390803 -0.6705054572334994 -0.5551912163571612 1.8974688958236594
0.08486162878596624 0.026852009266861567 0.162062680315633 0.6697554673242212 0.05506559379703139 0.7405372336142823 3.252013435862831
0.08362820453723761 0.030965646971259832 0.1629300970221587 0.6845066981388936 -0.09998885049574896 0.7221168949550539 2.934075035755868
0.10455679238858089 0.02235895896846562 0.16232613207404614 -0.4966080938283433 -0.6858678144685147 -0.5319452436297956 1.847923068464954
0.08857647929597685 0.032167777743714314 0.16218878842111378 0.6745900454246286 0.055421759698777655 0.7361091625335799 3.2647357439321874
0.10932970106463197 0.028018227240712932 0.16298311566751753 -0.3722875965442371 -0.8356920101825385 -0.40375835542609323 1.7031167309709514
0.0946413708476949 0.043556687276089544 0.16282845736070412 0.536807689202179 -0.6262683540877345 0.565354272542144 1.9747273102369993
0.1098473994228003 0.03203138289673465 0.1623604124619047 -0.052736146835814034 -0.9958241802091622 -0.07451913128628036 1.4696491851334248
0.09888801724321328 0.04881522345669259 0.16305801650840432 0.5413908224203162 -0.6391097076903905 0.5462918257991394 1.9524966840885636
0.11495500789165963 0.038325551869393785 0.16226788792754415 -0.0692502405371064 -0.9925823657825025 -0.09992322714546102 1.4773095664135194
0.101572433141769 0.05359775445255175 0.16270265959147723 0.5816097504872788 -0.5486690551731197 0.6005766945474669 2.0775331423377255
0.12043831336115864 0.04201629804054601 0.1627163397228572 0.04001410779618154 -0.9984436452638432 0.03884788809606576 1.5220055932273555
0.11196410835331408 0.058793263955091025 0.16203451206739247 0.529707296849977 -0.6155971690836725 0.583481195138334 1.9670174077017972
0.12498251492731435 0.04518594681634306 0.16245491333574605 -0.11025965380777931 -0.987545574738668 -0.11223433768799353 1.512355524260666
0.12317264197477248 0.0645781092008491 0.16291510696878173 0.38746112992499465 -0.8334239621189823 0.3940537681118449 1.718847619251183
0.13438348690725133 0.049639348946715525 0.1628142028288503 -0.19246257273399722 -0.9612187941366763 -0.1975261701523236 1.5846492078024998
0.12313663221570244 0.06714716684000138 0.16185304568229672 0.5361336537396983 -0.585340324851424 0.6082248017226448 2.0152840987951968
0.13103050163917973 0.048146281617727715 0.16261997783101556 -0.29353158191176093 -0.9119484999934967 -0.2866864904036994 1.6097446935027582
0.1191621034124732 0.06513219772387088 0.16158966044921505 0.5178132103851606 -0.6175767715268765 0.5920037250060627 1.957287647456661
0.1335656376005771 0.05099229937502233 0.16245063384519864 -0.01089054811378153 -0.9999147391455139 0.00720488732322393 1.5199469666598548
0.12390031674431438 0.06297531707568155 0.160556862001528 0.506885177505664 -0.5529910622319076 0.6612626572827761 1.9834390724991455
0.11792264756464263 0.06269399596628325 0.1611570626544412 0.5862270663100825 -0.40558578560385855 0.7013116263413683 2.2553679469855137
0.12966515971579426 0.04741732869271415 0.16205959515074037 -0.02078711044355407 -0.9996782711315265 0.014534451035025979 1.4957781673261932
0.11655840066396159 0.058832581690793556 0.1607155406167769 0.5221924154820912 -0.5321528890181105 0.6664295791174473 2.025266839698647
0.1131168954869105 0.0597965595609925 0.16143808917261188 0.5943918488444347 -0.4010736916023077 0.6970209637677992 2.2757228175669226
0.12659620148452577 0.04683412249948999 0.16240621934203114 0.09389034044194587 -0.9870079086877698 0.13038401803706914 1.5250053967532136
0.1194085385818294 0.05720883174006331 0.16047967024400056 0.5101484178001219 -0.48744317934493875 0.7086238344327195 2.0644849589400236
0.1272793535458735 0.06254746562782136 0.16037278304389135 0.5499245760592584 -0.3399736200480698 0.7628898336702723 2.2940488679368305
0.12131808145100062 0.06375592215609084 0.16150996475465332 0.6425458617908436 -0.17987279269769374 0.7448359510272007 2.7147366912616984
0.130121440137919 0.052185912972088924 0.1610498844011321 0.5719438240537146 0.46331555906098604 0.6769187210136971 4.156151104452872
0.13016192565588566 0.05237964169614761 0.16110938664148697 -0.5235788615343175 -0.5755064132490835 -0.6282177521079797 1.9286773135829205
0.13090856872757672 0.051822113450359523 0.1614818771244916 -0.547430482588465 -0.5452183908023812 -0.6348675240267235 2.0117886536859846
0.12340381137068977 0.06479584706176464 0.16187722067509042 0.6587911427514872 0.05821822273498877 0.750069909257643 3.281979688509887
0.12898056900196828 0.05238773101039107 0.16101607558646047 -0.5281636687004309 -0.5707383666702184 -0.6287295570239346 1.9159000862509137
0.12736392629232673 0.050305407294264505 0.1612190055577671 -0.42276401154471394 -0.7540371451766412 -0.5026913309740698 1.6723372762522872
0.12431785184266393 0.04806163519070495 0.16124968636966447 -0.39997406550934794 -0.7831624031572348 -0.4761064977511948 1.6389503261219223
0.12144729795704108 0.046785537623391035 0.161206488624451 -0.34898245147745305 -0.836941735343426 -0.42159195936488425 1.5580867157816747
0.12350437457112025 0.05640897614972218 0.1628212648517667 0.12961813159160757 -0.9850116607729396 0.11380319900616133 1.5197007359575456
0.1213806254876933 0.05395865958854082 0.160331193254751 -0.25670622383603925 -0.8703956263313443 -0.4201349405930295 1.3924539465203483
0.12198200682524078 0.05699703429939739 0.16000364018665525 -0.35345689315045525 -0.7462906816147941 -0.5640198961201224 1.4441252400515836
0.12380243894224628 0.05994641591057086 0.15969724732344262 -0.3767838041046824 -0.6815651626265015 -0.6272980902715348 1.461354890599499
0.12643372749577397 0.06175952837538056 0.15973971261031952 -0.40417854433477246 -0.6171816451617539 -0.6750751966817145 1.5459057347207972
0.1314687366575313 0.059341834929398256 0.16020541286382464 -0.45245610822004406 -0.6163051997714575 -0.6445551728665557 1.6953835596581066
0.13079599836589575 0.054703494653703305 0.1614596317773944 -0.5646323167923564 -0.4880935701084406 -0.6655486561120028 2.0710957663973133
0.12908269272398704 0.06494349337149205 0.16039853299626372 0.6061024696006637 -0.04402951836270051 0.794166983610327 2.984902312769623
0.13061310793187494 0.06644958276638967 0.16099907157739551 0.6047787390430548 -0.14835397377389006 0.7824536888960192 2.7517677356714856
0.12907366327011546 0.06673794818236556 0.1616811119490855 0.6324265721270775 -0.10140669265799096 0.767953978798054 2.891035617847697
0.13230509540834454 0.05628290049927028 0.1624830514795458 0.6364733204919221 0.2387631353678079 0.7334124879570301 3.6617432672919925
0.13468805707661802 0.059334628897785215 0.16051778045054454 -0.5291744863505775 -0.46801831221018353 -0.7077663614721553 1.9836755907195636
0.1360966299859112 0.06463550464843601 0.1601807682823811 -0.46659878127311644 -0.4784712041465364 -0.7438755837618316 1.8172042514228164
0.13821772243295205 0.06728113554438404 0.16032399583427262 -0.45002170323939394 -0.425831437416619 -0.784950987973906 1.8604193009303225
0.1407929317191066 0.0669330576495886 0.16037253897475215 -0.45949054074564166 -0.38799546356139264 -0.7989542935744559 1.953547241535204
0.13110950008306643 0.06876300004358561 0.1613410258718114 0.6057207924884326 0.10723218496715656 0.788418404182928 3.4926941699417067
0.1341912232199178 0.06731840343558375 0.16009077155347123 0.6091916562152584 -0.01629380044456341 0.7928556224589589 3.1221899457741698
0.13534359377830393 0.06693398978557795 0.1610525032198601 0.5768318230588817 -0.14987310914088856 0.8029963256846261 2.7269702268964577
0.13523135050710614 0.06220615098210563 0.16079114067594016 0.5339240662405758 -0.20781809497766787 0.8195954678309186 2.514966343987966
0.1320886683511847 0.06036979836032374 0.16041798747293745 0.5276978327044783 -0.23535472283353354 0.8161759318914928 2.4406728469066166
0.13083767587885106 0.05940007942493414 0.160616612933727 0.5280244193338681 -0.28543863513971174 0.7998218540129481 2.325696603005376
0.12588103807734285 0.056251443187456895 0.1604275867203711 0.521809840691948 -0.287371012914918 0.803201339075887 2.308647728076878
0.1284826053210133 0.05595495840492634 0.1604888879263533 0.5072149832272153 -0.27507523633198283 0.8167414371431876 2.3078665794793998
0.12435572542173697 0.05317286111187494 0.16066067185231275 0.5117436467587005 -0.26987092974427374 0.8156519608761251 2.3291343603530565
0.11559023478111541 0.051161295931792763 0.16038305372213005 0.5437702859487871 -0.2653500051990439 0.7961804135119387 2.3985580186811752
0.11128690911340573 0.05249484693352335 0.16067898164562688 0.5778626268842137 -0.28704948363699917 0.7639878129880137 2.416038385853964
0.10704588795375523 0.055301828427756834 0.16154201390275827 0.6152959688668083 -0.3235341790433023 0.7188438673919616 2.420452183117827
0.11854483627533711 0.04279218277194518 0.16110248277199124 0.013645635669280483 -0.99972598246183 0.019019900575712675 1.4224150391366441
0.1172934006573364 0.03549397277794523 0.16263742628516592 -0.20548214604809112 -0.9559768587639186 -0.2094882649776401 1.5532219808566532
0.10018278640140267 0.047022290681990986 0.1615768174896719 0.5626096767713321 -0.5040249421094932 0.6553084841010218 2.1257684703537647
0.0958057549379244 0.04886029838512036 0.16276610676930317 0.6473546742579617 -0.33713871405240753 0.6835710739955702 2.457958001567563
0.1099881544819496 0.03731165429189091 0.16138284451472945 0.0469133560555734 -0.9988983446367898 0.0011109030040045334 1.396850296059765
0.11110499871313066 0.03188510958392432 0.16228187817951065 -0.1396094349072277 -0.9766714179250848 -0.1631629464464555 1.4905554335887532
0.0984864218475069 0.04302202472930624 0.161047945833325 0.5603674337647401 -0.4834550287344912 0.6725024716439726 2.1286368898986208
0.0964809257170971 0.04148012482985967 0.16155874423079755 0.6146374514525785 -0.28948348782768474 0.733771158841091 2.4878489680560087
0.09443883428812255 0.044469278579427764 0.16273830434093797 0.6327033984272298 -0.3761836856965167 0.6768842177465938 2.3852982999492554
0.10788121637167405 0.03032117710834214 0.162232103667723 0.1396161939915607 -0.979775398408481 0.14334394667656372 1.4967250429920864
0.09318597047371391 0.03406481148702405 0.1612458257722684 0.5806583335805803 -0.41006044179082807 0.703339415731647 2.258480795945906
0.09027947617262215 0.030723585354629948 0.16174061329950823 0.6228280066407068 -0.23450333047310903 0.7463869386189601 2.604245340008866
0.08471893890963084 0.023818904303558267 0.16208404811240493 0.6477321567892254 -0.1386628137527577 0.7491432954671265 2.8236407653647544
0.09957980595138738 0.016593249620501998 0.1610014409288262 0.19889181362767586 -0.954059109350441 0.22408315942376641 1.446193521174417
0.09574127318054282 0.014164104319956725 0.16083374297174113 -0.07003196509067684 -0.9915894305846825 -0.10883898666508825 1.3160703125341269
0.0927759370353749 0.011794640088207997 0.16049039006077737 -0.1298014508855216 -0.9733967890629427 -0.18881280250546123 1.2666414550889402
0.08385469433267502 0.012103254633463217 0.16032623508788116 -0.1498516903807265 -0.9436590420502488 -0.29504590023731175 1.0173637502421784
0.07971117815501699 0.007698292126493196 0.16071716924500648 -0.13709424856919902 -0.9464048454532921 -0.2924432175855284 0.9247223686499808
0.08091787319968173 0.003210725275138777 0.16020805420382814 -0.14288698181683648 -0.9506112246560594 -0.2755387631263199 0.9992047197076511
0.08320047515286508 -0.0005081979968734057 0.15994014527151934 -0.13255924808263503 -0.9645988728945561 -0.2279847805409789 1.088722838752763
0.08329102949013617 -0.00486505587000124 0.15999847078246918 -0.12716076695602452 -0.969697493464145 -0.20860707206734339 1.1241650751932921
0.07740548547975432 -0.005951564283617555 0.16052316927657237 -0.12181796696762084 -0.9629544119924733 -0.24058092889525884 0.9662014086272753
0.07654557187822418 -0.012312471089254524 0.16024925783642102 -0.11318029189848063 -0.9687555510836401 -0.2206873439289337 0.9733170362046123
0.07666561621344094 -0.015641594964225174 0.1600124928630668 -0.11705651869833285 -0.967836309052578 -0.22268958284955723 0.9947122200828934
0.07413609559676333 -0.009881837554086588 0.1609431484685092 -0.11615346156953818 -0.9601977382488263 -0.25402495315864576 0.8888379736307798
0.07041001573141398 -0.012635638331307621 0.1620314544591777 -0.11408147172474875 -0.9537630798501403 -0.2780672676240235 0.8120119331363137
0.07023507301157225 -0.019688203216556288 0.1612377671534069 -0.08875600784782965 -0.9734477315522024 -0.21100209716205948 0.8175634653194379
0.07249411255132354 -0.023489980411924943 0.160360070763214 -0.08607456701010158 -0.9795576305758856 -0.18181863846861407 0.9023299418057827
0.07266871261323549 -0.028818912250270137 0.16016846674645138 -0.054376656454478804 -0.9921724377066778 -0.11241455905717933 0.9123129525649101
0.07222459924359385 -0.033846834067111226 0.1603239353350782 -0.017828921666598694 -0.999165382545093 -0.036751433655357185 0.9107402535556648
0.0752841132028841 -0.03690526119666934 0.15953782716703838 -0.026263910458537303 -0.9984986593461872 -0.04806905752449227 0.9923640947961232
0.07504293211112825 -0.04028866026795128 0.1594339387815965 -0.011903059603219518 -0.9996862484683859 -0.022039096970760515 0.9797981402461128
0.07380475194443291 -0.04345634961447307 0.15961246269627485 -0.002010561126463768 -0.9999922222424896 -0.003393095708059261 0.9404494254818969
0.0712524056065529 -0.04678204198005072 0.16031962105527411 0.03768181296292899 -0.9956359426455276 0.0853765230269927 0.8663929616876304
0.0726859173547263 -0.04950622279993749 0.16001085485227293 0.05529613882569707 -0.9918097817995627 0.11513337377873097 0.9042551448856546
0.06913406632005156 -0.05165934114383988 0.16174327983076334 0.06703422628775092 -0.985466805570445 0.15608199007183846 0.8278632528961775
0.06976710245156213 -0.05681976225333956 0.16154608844601293 0.07634721244613721 -0.9808229820745942 0.17932479188891987 0.8212002743947674
0.07074740200808037 -0.05981118518381292 0.1612910851574559 0.0749343386344279 -0.9818276468527862 0.17435399843118482 0.8260231543241862
0.0715493219118108 -0.06280947588220082 0.16118598010175206 0.09023875116564883 -0.9741881324956337 0.20691652977162928 0.8414667401282333
0.07225847040452449 -0.06587220159179855 0.1614501721811196 0.08479676818111925 -0.9782223119821523 0.18944818934561022 0.8586111103420946
0.07178758166114449 -0.06851718218871918 0.16206498812466974 0.10907286298544296 -0.9625826190572514 0.24806816008718524 0.8581467452727437
0.07349703745604064 -0.07100859409645195 0.16156110906629398 0.1495561197899424 -0.9319805517464724 0.3302199542724778 0.902860389931005
0.07324935058365284 -0.07484594304467479 0.16247337097407838 0.17381066832997724 -0.9008119857712948 0.3979040309741318 0.9042576576078802
0.07668480747352754 -0.07839057132490183 0.16173390236253624 0.18075907850720266 -0.9043507959268059 0.38662099457191873 0.9539703165275947
0.08059536215528075 -0.07977388962075366 0.16150501897676023 0.22799584361976957 -0.8757531584713282 0.4255282607766521 1.08942077175887
0.08613687879560498 -0.08142570331041218 0.1619538927844246 0.26025446769076416 -0.8742132505328605 0.4099009693081578 1.2475309505352916
0.0855305905938513 -0.07305363001459099 0.16226202190297953 0.4354056782669929 -0.7041502886350741 0.560887035282508 1.6313859286839518
0.07776961875377293 -0.07631911696735878 0.16379557360498784 0.6121859602085585 -0.3481177256718389 0.7099594348951154 2.3355773576758088
0.07963842228311664 -0.07514780766244972 0.16274463950570872 0.6106056099875048 -0.2315379399641506 0.7573314805347423 2.577424939190287
0.08192073898856837 -0.07977512242162785 0.16281006365969364 0.5955185758843582 -0.1318613608354961 0.7924457125224901 2.7994993984908034
0.08464208444141598 -0.07709032414686764 0.1626120760712023 0.5777726371605187 -0.11789599944956496 0.8076381077328928 2.8169351086816214
0.08668334011244572 -0.07397671798793547 0.16238189836122963 0.5658146172966341 -0.11610506852945084 0.816316992298479 2.810182391758768
0.08787046118792569 -0.07228046593822077 0.16207014620494348 0.554325315548533 -0.07006228958573724 0.8293459592474202 2.934586536940124
0.09101703335438424 -0.06795783231513554 0.16184816439706384 0.5209447033745865 -0.014663214081810086 0.8534644727103496 3.1007384037645176
0.09205898569478904 -0.06423227112469843 0.16172042341180534 0.5029969931604319 0.010857874289140602 0.8642199554728449 3.1828455974593943
0.09356185907183288 -0.058047553356563 0.16220368071055918 0.48322337374165336 0.016871608805350637 0.8753345188475395 3.2043272030684897
0.09061870724264438 -0.05388001658343286 0.16164103640575778 0.5065682680055781 0.017689401594282173 0.8620183727282529 3.2022253623561707
0.09091499881426278 -0.04987774353430271 0.1619187411003677 0.5053351961675472 0.01855556286111905 0.8627236119413992 3.20509628759198
0.09157086319810012 -0.04650165679866152 0.1622042278301151 0.5001309931415183 0.009714571730833876 0.8658952689531021 3.175122745030894
0.0873548428643732 -0.04138192649585789 0.1614440417017801 0.5315081842567654 0.01858762107484001 0.8468491898861652 3.200091756174716
0.08445392578301937 -0.032672187055349494 0.16127316364591254 0.5539681402256297 0.018307532396096306 0.832336550844983 3.19648266376744
0.08293667336920157 -0.02539278450327305 0.16133902046669546 0.5713669592898186 -0.0005173127526948803 0.8206945413608052 3.1409450082937598
0.08385570113172543 -0.02139892990914348 0.16157726798546873 0.5703043801885885 -0.01532421252473311 0.8212904982088901 3.0976631484624693
0.08270936421395488 -0.018355498380259617 0.16153158868697723 0.5809626239298339 -0.018513762143224016 0.8137196508674633 3.089887146498089
0.08295401327706635 -0.014820787333039409 0.1616061674040765 0.5834897958586617 -0.023315429798014684 0.8117857160988674 3.0768253498136904
0.07829631578118947 -0.004289554733680868 0.16156163938349893 0.6249964198292094 -0.07189255977020659 0.7773100636492223 2.9677927228945595
0.07928913524460776 -0.00010208294678476478 0.16158431869475795 0.6250390914298393 -0.0819605816648972 0.7762786852913794 2.939913914632063
0.08280792309137378 0.006200240847453755 0.16155244589098713 0.6172489441371657 -0.10359358586690832 0.7799180148764289 2.8812656824262723
0.08390067685735292 0.002903653948672557 0.16152533411879488 0.5999760913193667 -0.11115062121696156 0.7922589407814964 2.849698954327725
0.08683898230932297 0.008251588941210935 0.1613472011173456 0.5900871556546502 -0.1118851636325252 0.7995491597708846 2.8405179136383296
0.08889010247385486 0.011387658244112302 0.16137667402341951 0.5836816887963927 -0.11138072308130226 0.804307168120288 2.8369608845019054
0.0889744193052845 0.015913857472340875 0.16150621769731094 0.5988498962890021 -0.1165654663427912 0.7923328175526615 2.835625950729239
0.08819493272693817 0.019210720492826648 0.1616040387480023 0.6158016894538463 -0.12114371399083312 0.7785322599778997 2.8377375393121027
0.08887125357382636 0.02641879534813202 0.16182491635586008 0.6302446004382318 -0.1458706816052712 0.7625703166701856 2.7930045839581426
0.09982044705872041 0.022583218892802837 0.15936817486682398 -0.4874831257981697 -0.6257414372124037 -0.6089399443437763 1.7467044118387718
0.09890185379532099 0.026116569389826223 0.16033331191554287 -0.32724435180311384 -0.8353931366427902 -0.4416213779507063 1.4027802749513567
0.09880948202752203 0.03222386592511391 0.1599685062170725 -0.2592816834792396 -0.880144852651971 -0.3976406002440042 1.2455999767937913
0.10026037014918465 0.034785735992404435 0.15995813931541725 -0.2418823471063812 -0.8934842044196264 -0.37838988703576026 1.233345042941795
0.10202871072005283 0.03699911536272722 0.15999059627038134 -0.2596959581903281 -0.8771556096536866 -0.40392579238354787 1.2621718394241221
0.10156988699998647 0.04098527450502933 0.15982699738387024 -0.25335252385972246 -0.862178672300539 -0.43870312933006145 1.179419443037852
0.10220193170372177 0.04558048730464069 0.15997310223712705 -0.27881514396002766 -0.804034606934323 -0.5251575633564823 1.1713435879253336
0.10815088327076168 0.044481217150166764 0.16019150614930838 -0.31099641775911063 -0.824304574601838 -0.4730784252441487 1.3423795984384403
0.11269710514858482 0.04327303460897028 0.16058500334157344 -0.3406715911067237 -0.8234118692284633 -0.4538014550731422 1.4733665559285518
0.1145828601213006 0.04730330076720352 0.1602467912833149 -0.331864444101324 -0.8191103440401292 -0.4678934013509706 1.4255384365089612
0.11521762659369898 0.05390111876391649 0.159853522344079 -0.33172288798373584 -0.7713218186345779 -0.5431598086069854 1.3422856517251833
0.11039472928358876 0.05566151028141 0.16015782375462 -0.31817805525711945 -0.7197228323980095 -0.6170589677476408 1.2458006353662476
0.11219681786718227 0.06261295071657924 0.1608554669512878 -0.30414402734344415 -0.636832075442415 -0.7084781706721925 1.1930122503360339
0.11492221876638421 0.06678751843202249 0.1615084326930561 -0.30211913948766156 -0.5712327627980924 -0.7631626014561336 1.2171257934522142
0.1173655521262983 0.06904399267723943 0.16174539647563807 -0.3023867001457073 -0.5371784885398784 -0.7874017748424256 1.243330817548769
0.12182794377026934 0.0711878668787175 0.16181992028732922 -0.3137303265894424 -0.5133120079433868 -0.79880164288715 1.3062236376473497
0.12693356679061343 0.06887240595353675 0.16041963794591027 -0.361297765664305 -0.5264757937203512 -0.7696019511101224 1.4502764057266087
0.13211569076911084 0.07145329040176081 0.16065998037613255 -0.36773958951947894 -0.4667168089282093 -0.8043276786011498 1.5497099653038706
0.1362090496073035 0.07405297142913862 0.1616169172875463 -0.35326660105802443 -0.4847269282714548 -0.8001515566350107 1.4762119233617639
0.12865154096630552 0.07398886661213358 0.16219676910881733 -0.3332312365676169 -0.4614243520444521 -0.822219259270892 1.4406634136825407
0.1300906743645706 0.0752405089731067 0.16304480704604005 -0.33887426760843864 -0.44567767701205213 -0.8285744619320494 1.4846151204771394
0.13269426561769307 0.0769119983068268 0.1630572778101548 -0.3242102583446312 -0.4148029657120245 -0.8501918654166344 1.487522181440764
0.13830189283949562 0.07524431657486431 0.16213965359359972 -0.36523877086131945 -0.3795661741699785 -0.8500177408064364 1.6869608597957684
0.14360076140864464 0.07288693872902015 0.16132402186974953 -0.3855234854012079 -0.35150996354761904 -0.8531192107383683 1.81524173875077
0.16049011481660475 0.07308492187176277 0.16026300783718245 -0.3861125362755821 -0.47730213919669057 -0.789366693779957 1.6030079077355492
0.1637504953419384 0.07068151605609195 0.15958610683378563 -0.40661093773641555 -0.5283934406827269 -0.7452972005559813 1.6073823175780186
0.16758641386327067 0.08144428079488222 0.15854382843083126 0.2880454954243361 -0.9035421873487895 0.31724014286769225 1.2914778033868217
0.1718334436355052 0.07622361190264247 0.15896708783284413 0.3725606279925553 -0.7676350581465785 0.5214738689273816 1.4511409604223415
0.17077456469196306 0.06942399031131197 0.15862316565466686 0.355606721385456 -0.6862810876746541 0.6344778391761057 1.3638692395272267
0.13954537121495664 0.06147384301331329 0.1606464441205818 0.4840621923597358 -0.3413018388191202 0.80572752760879 2.0866709027420347
0.13991428377168796 0.06528151464782538 0.16148952884173587 0.5361461965889391 -0.22883040487488154 0.812517016245206 2.456761756647177
0.16426877101171333 0.07541854171032214 0.16012038079799962 0.48945697803063964 -0.48924089372699614 0.7218553972661867 1.8979787984385732
0.16167995270682367 0.0756116240479448 0.160782403511447 0.4604289375690001 -0.5749467608888876 0.6763441546967477 1.7408509680524906
0.16266665980792525 0.07592820996942161 0.16190824170352347 0.38732917222367663 -0.774197806869973 0.5005935159210969 1.5981979459080633
0.1596040141081295 0.06710265575317846 0.15773043071362264 -0.21943862214124862 -0.8729358006234382 -0.4356945938414515 1.2755688047786715
0.13461207654873425 0.06751328054758944 0.16305761602457186 0.5980354579503576 0.2446892738087544 0.7632042651329003 3.834986769998718
0.13773782044633176 0.07336186658660189 0.16095770366831846 0.6396085359391095 -0.06157135455620706 0.7662309632558205 3.03953141526785
0.13750653258456993 0.06984002595328141 0.1615126514448241 0.6167289510772481 -0.11872529960272535 0.7781707422779401 2.8537480169349276
0.14762578689900607 0.07794955747425357 0.16294238237012781 0.5920370900286076 -0.3627919772960519 0.7196346748455631 2.3215989507097374
0.1537309942554133 0.07639624535597851 0.16263507603979716 0.5335332450847265 -0.4828405149554354 0.6944114871651614 2.01324031377425
0.16369461119085438 0.07211553200700264 0.16094812573142586 0.4641577080821743 -0.5191381989231696 0.7176720368292963 1.7700493437129634
0.17261778961927238 0.06668789175970594 0.1576896105330209 0.36995299993788133 -0.1530835049876124 0.9163515800923081 2.6404015043669866
0.17471972939304836 0.07220554123002994 0.15919722490820618 0.39133515627131693 0.09359253299664352 0.9154765061067249 3.6172801765487423
0.17252203651541634 0.07828016357370844 0.160296520727162 -0.3600578541706474 -0.34498908919868365 -0.8667992097273115 1.727715309441044
0.16659384584873413 0.07512763059458119 0.15971953000156122 -0.3980765935297862 -0.37979833411382086 -0.8350378740440986 1.7884268960703977
0.16620286733707115 0.08179732707878341 0.1621705719094882 -0.3154514687974142 -0.3227495009001399 -0.8923693912849457 1.6496166959760652
0.16344580279965573 0.07870046005566558 0.16181842537378296 -0.3496843618761789 -0.4147413539968528 -0.8400657452509932 1.5794850606827324
0.16001543428415313 0.07940084124111249 0.16242121167456272 -0.3300234817342156 -0.4228683406954768 -0.8439590439953114 1.4920461085195607
0.15550524745109193 0.07540414348318712 0.16189575238778378 -0.35212984375911716 -0.48761523162940956 -0.7988967136101994 1.4728178489762538
0.14993009979707256 0.07160944934209004 0.1612856173271368 -0.38116811626409214 -0.47770263003748953 -0.7915245191394573 1.5768303083059738
0.1468623887743652 0.07257046008235161 0.1614676174247971 -0.37972538714088844 -0.40670726857766387 -0.8309018161291973 1.6893491687302022
0.1522013896882734 0.07349271191871813 0.16167897216401486 -0.37000930038618407 -0.4538770925463579 -0.8106100804267063 1.576922323336668
0.14212629978064578 0.07825485237426276 0.16377843810799042 -0.33200443080471903 -0.33128707900382987 -0.8831885015166041 1.7126743681597498
0.1553135792587436 0.08234053074227403 0.16439338123655273 -0.28677226979095766 -0.347112453098148 -0.8929023519865587 1.4839123174709157
0.13937945439432967 0.08127842994129889 0.16515940554126624 -0.29707231983200905 -0.30899015494527293 -0.9034783455825186 1.6291686480629726
0.1352351844996396 0.0812064401111734 0.1656574885496734 -0.2971733751458949 -0.3419092241810331 -0.8915077495593189 1.5449088851920658
0.13125988120302967 0.08134275511069583 0.16660265418498593 -0.29209606287101203 -0.35707106445194653 -0.8872317312779157 1.4892468554566196
0.12645895471741792 0.07753496306130699 0.16482668174363216 -0.3017026278135092 -0.4282452139689585 -0.8518107542659367 1.3857978846876375
0.12349618270345271 0.07518870166096792 0.16389958669320284 -0.30024095169782616 -0.4598276575118707 -0.8357116107310759 1.3277759728159366
0.1181627256323342 0.07379612858409496 0.16476495602895946 -0.288279268469874 -0.4873294133341046 -0.8242603388917313 1.2443154247728765
0.1150216751040797 0.07144483928162389 0.16425936928937618 -0.2860822933055798 -0.5067829082700127 -0.8132207605210334 1.2134701364186555
0.11239519577569108 0.0689107428741931 0.16343432224962565 -0.28393685038106786 -0.523274369626167 -0.8034698495202023 1.1879672664117713
0.10856314880032315 0.06497519147580473 0.16273592198310685 -0.27864934164042504 -0.5767490524157892 -0.7679290819736201 1.1242327250907247
0.1050130069226852 0.06227501551735774 0.16297918367035513 -0.27019000043958036 -0.6051130517649644 -0.7488895500981109 1.0753897352817052
0.10416183460741435 0.05880809790031517 0.1619882568661125 -0.2675980311070908 -0.6745165832417901 -0.6880542657955331 1.0487599538368833
0.10264391728553456 0.054264153518921936 0.1608925717406847 -0.2775489798515884 -0.6925823810301935 -0.665804933347516 1.084141929550544
0.09932271817310742 0.05353144524964323 0.16164745653971072 -0.2580184599855227 -0.6970685853366584 -0.6689707479729207 1.0088598354204426
0.09565777211127126 0.052416362039812 0.16299560971352955 -0.24918063492835335 -0.6757996168189213 -0.6936886110381959 0.9765173112147093
0.09347686792842413 0.049811481472635255 0.1629165571202541 -0.2382607553147589 -0.7004100047252938 -0.6727983633731242 0.93572228657559
0.09208411487173962 0.04611587475636751 0.16228222223455863 -0.225616763055885 -0.7579375229776905 -0.6120684500042685 0.9067247034759832
0.0908682027723088 0.041571993988030236 0.16157890509590664 -0.2314376790700867 -0.7749556247374513 -0.5881159582892118 0.940063138545946
0.08932285557130448 0.03844540100696339 0.16165132229411033 -0.22064533818401186 -0.8047910184354672 -0.5510236395866033 0.9238776091400247
0.0898464415512111 0.03511997861988201 0.16067817729050873 -0.2108303190528987 -0.8473688889299967 -0.48735668933707654 0.946684008400623
0.08592470064167439 0.031932001812833566 0.1613361805906838 -0.20443962730360213 -0.8313238887299428 -0.5168220494666323 0.8885398039523151
0.08604795621834077 0.028164915797237736 0.16066017752937994 -0.20899095191746445 -0.8463065065847852 -0.48998783549072816 0.9336101326147688
0.08952583535323623 0.023653198883343194 0.16000240763831902 -0.2002020578489748 -0.9039304831450922 -0.377927000456591 1.0669844837994904
0.08685481466236464 0.02131575492781748 0.15999097453771394 -0.19206865124307929 -0.9023151378781055 -0.3859236001667687 1.0089957139110044
0.08318485701858232 0.019400996869617885 0.16065742167991864 -0.18725033387123896 -0.8903336268742034 -0.4150221022091914 0.9378971458336242
0.07926941387421595 0.01733283962907094 0.16184303144219317 -0.16622637806830606 -0.8985634288311352 -0.4061435160156148 0.8505925504437888
0.07773097203755673 0.011547480162229319 0.1614848659830168 -0.15118774642126068 -0.917552494355092 -0.36774948733452983 0.8412781996361341
0.07468251657333126 0.006339274467682317 0.16229574028469404 -0.14258442386117604 -0.9214534732577883 -0.36137678217247865 0.808072643501552
0.0740872152961633 0.002252081888871501 0.1617986086512183 -0.1391351455836373 -0.9271952690844314 -0.34777916017333294 0.8144078995439307
0.07329225084757014 -0.001798863862314156 0.16173844678742988 -0.1265808062051683 -0.9418808088008156 -0.3111877913947961 0.8157315704714011
0.07062983035042146 0.0018094100574709718 0.16387748224181287 -0.13290723602709187 -0.9195846725629978 -0.3697292206451139 0.7475993341743625
0.06868568325157678 -0.00064974073467045 0.16490819677293064 -0.12747729558617313 -0.9218428245271361 -0.3659991065260501 0.722688177059613
0.06683967851731051 -0.003431030733041035 0.16561907797794106 -0.11264162924286136 -0.9344916114579727 -0.33769407971742016 0.6841559121127766
0.06705650371444868 -0.007053614202548476 0.16471182332899045 -0.11423610076765578 -0.937067086050949 -0.32993240144215197 0.7072724511925736
0.0665737133323225 -0.0140061605074998 0.16359044759543162 -0.11052363955639094 -0.9421596128254289 -0.31641711246366994 0.7099072650472464
0.06491773561410723 -0.010672674018315906 0.16552785206995335 -0.10240870404473995 -0.9441864889636716 -0.31308837633219716 0.6656221163526622
0.06280060276891956 -0.01447673556956391 0.16645339240764376 -0.09580484053308276 -0.9451881561204496 -0.31215506092334133 0.6265432799355871
0.0630638697124305 -0.018163521537358136 0.16559360602504267 -0.08510369720665424 -0.9590128706708493 -0.27028073296003735 0.6347604930945379
0.06491180347466022 -0.022392681605815166 0.16343703574201102 -0.0710017551501811 -0.9754281660526107 -0.20856328448898687 0.6758144517810628
0.06688083945535009 -0.02616878786800063 0.16223663596295862 -0.0700050236333763 -0.9804294390779639 -0.1840038359800127 0.7419993415539822
0.06719000408073508 -0.03150167155933763 0.16200188399091092 -0.04645143001802346 -0.992107992460931 -0.11646456948111675 0.7722136651896088
0.06643893123442371 -0.0351550878798119 0.16236185993664387 -0.01751876077397903 -0.9988777891700819 -0.04400290130927258 0.7549165615352481
0.06685879350121834 -0.03828009667639174 0.16230193063460874 -0.009169535386279699 -0.9997001938154948 -0.022703350106577116 0.7707018280197782
0.0673194283852474 -0.04178188823120299 0.1619430816092308 -0.012368928839416019 -0.999463317708737 -0.030332921949752362 0.7744307330703214
0.0673114667297891 -0.044559893940976564 0.1620210392422946 0.0117592812245116 -0.9995075469495708 0.029092660516603214 0.7714433183499215
0.06595154577790276 -0.04757737669194719 0.1627721966420737 0.024802077367643127 -0.9974968085751723 0.0662191350033785 0.7273584477152563
0.066209097276578 -0.05415016891391751 0.16304612603284854 0.05721546546126118 -0.9866923432209957 0.15219924553397698 0.730149567031601
0.0652490546378525 -0.05740974551973076 0.16407350164268822 0.07574900618392268 -0.9746476839147538 0.21053261101728216 0.7102197276236236
0.06614786872427224 -0.06231822165012293 0.16386796282481705 0.07046133324654151 -0.978424236658746 0.19421949859854504 0.7112456898881913
0.06698783382456563 -0.06586437278418607 0.16392776059289701 0.06382060265878522 -0.983196358090844 0.17103172838152075 0.7268557539912958
0.06660845764752707 -0.06885122810014103 0.16462647071904551 0.09637846100505672 -0.9590054664987071 0.2664952297507291 0.7238560684959475
0.06867493361196765 -0.07244940331505703 0.1640330064923866 0.13904290578314626 -0.9222236843026959 0.36079155542021857 0.787609127257293
0.07225139012499625 -0.07765466996313702 0.16359285081313205 0.16228211337664353 -0.9057864177066264 0.39142749159481255 0.8546515106289289
0.07388034005452426 -0.08113760722254705 0.16345968506305644 0.18051309082421052 -0.8848987581342168 0.4293823609483872 0.8854379782304965
0.07817049318739665 -0.08554223631534356 0.16284292586968768 0.19330751629925286 -0.8840126522616902 0.42562170384446596 0.9469449277914194
0.0835100622935153 -0.08619512857510082 0.16234727072592833 0.21672575039820072 -0.8928837147447153 0.39470067273570064 1.0967178219651978
0.08781306499567101 -0.08499579955772225 0.1626469769110211 0.3236755726365086 -0.8150419128063644 0.48056300736466484 1.3544127844304545
0.08688592542707557 -0.07779070771416435 0.1633235749008993 0.4723469735229679 -0.6587188488184279 0.5856430780048697 1.7323078672310284
0.08183603345796214 -0.08098732473199707 0.16282135145990753 0.5811649751849268 -0.28263837725314644 0.7631270007816597 2.4333555675063026
0.08073485803489978 -0.0821595893350239 0.16369130564518286 0.6095210466797654 -0.21417308279790964 0.763291546042037 2.61494120834202
0.08321266128490414 -0.08611010876195152 0.16362883166675382 0.5890284070828616 -0.1367708536923772 0.7964541852672286 2.7811903116613452
0.08577522546833126 -0.08398963586345096 0.16326396928032452 0.5656059573382592 -0.08813271608499862 0.8199527580165532 2.8929011347555
0.0892526671605616 -0.0810439795327878 0.16327292874693167 0.5352598329969748 -0.09032185422232442 0.8398445533727605 2.8609061981877164
0.08904387063263772 -0.0869437876851506 0.16364578013292436 0.5334323668683867 -0.0627245739679192 0.8435138041536332 2.9443739802803957
0.08937598548085993 -0.08901213880416138 0.1636930851935365 0.5241170573153493 -0.08784969374131944 0.8471031469311486 2.8588438621262378
0.08570697933311248 -0.08589853570021509 0.16398122263527812 0.5725121907411183 -0.2192803403829737 0.7900290651452847 2.572389946693303
0.08956274382496607 -0.08294025898958812 0.16400771366144784 0.5254032998196949 -0.5002197332263463 0.6882816218885542 2.004100678237453
0.09033986800829234 -0.09067234716465422 0.16354649201656957 0.40434397087423135 -0.6937964498039689 0.5959466750113366 1.5022361295941467
0.08294548059069119 -0.09108595197991684 0.16339576012222032 0.3049823597094796 -0.7775198061533124 0.5499533719374337 1.1671010233018209
0.08095480987443954 -0.09468365224984236 0.1645008764649639 0.26317306029135085 -0.7839624358090057 0.5622658086504067 1.042868791269773
0.07963767004928282 -0.09901264184837971 0.16567083824676812 0.2426868752369336 -0.7438083160197434 0.6227778653802706 0.9544443162957197
0.08262965399881987 -0.10057029387965996 0.1649609669110559 0.2944057127263979 -0.622642898055662 0.7250111018563151 1.1475551485479254
0.0876899168387715 -0.10600295997344218 0.1649684058164483 0.28490398095000924 -0.30762429687447107 0.9078529691592819 1.6587504103084747
0.08694473368304759 -0.09622044917773524 0.16467675583819433 0.4914831883034619 -0.32455113270250485 0.8081527317757362 2.0989551807428755
0.08897825654719324 -0.09449131911284939 0.16395032309996932 0.4953843539867209 -0.20770046704352005 0.8434778348095833 2.4449217185595056
0.09368139918844194 -0.09404311792101683 0.16468675636404162 0.46340743812434454 -0.10967967321786803 0.8793315163087546 2.740587532225339
0.09684512576809579 -0.09092318917602092 0.16495774484156941 0.4343413178904343 -0.07365851041970185 0.8977316099012842 2.8471428727423844
0.09426854919648302 -0.08659118358473324 0.16424822387205604 0.4789318658044974 -0.048045557114595336 0.8765363040733516 2.9629291366677557
0.09536646419613388 -0.07828558476120143 0.1633825444381589 0.4671172797492495 -0.06514651788233235 0.8817921400009575 2.895335470099454
0.09500467948394099 -0.07544463574968678 0.1628409850445314 0.47286810877085145 -0.04358793624257912 0.8800544548615107 2.978813013754286
0.09444895402586101 -0.07044932370389181 0.16230365308417377 0.4798423346669016 -0.027834488177030537 0.876913094399519 3.03932053745261
0.10096945051305718 -0.068125085700711 0.16340293130687297 0.3876555838410745 -0.008975327860294327 0.9217605935418567 3.1069591779757406
0.10130001523417237 -0.0647053258036462 0.16366808527561555 0.3837938700970825 0.004671501579132836 0.9234069754712165 3.1668454964406125
0.10057908789550546 -0.06143022294597684 0.16348097008139534 0.3912476239400425 0.0089436560275 0.9202419832729501 3.1842926006438255
0.1036848769223283 -0.057798994158313945 0.16448210547820136 0.33518828258038447 0.012017618938642971 0.9420745151291684 3.2115559811707937
0.09922533491444104 -0.054043357847981276 0.1637052688985195 0.41299461036392854 0.020290763758354015 0.9105074061842933 3.2297084065291863
0.09633271295623569 -0.05118606821539402 0.1629179310571884 0.4461831498098767 0.01842885502109025 0.8947519064681274 3.215639059535926
0.09192876782602277 -0.04264664414265543 0.1621384012189026 0.4898587050974413 0.006658135765787286 0.8717764152971692 3.167286783798097
0.09028819204500657 -0.03899573645853238 0.1620561403946849 0.5076858996980849 0.0039297538823284146 0.8615332752030942 3.155635212257606
0.09035878436277317 -0.0363316095446866 0.16229032416279965 0.512964409180774 0.014169527037029585 0.8582929216866267 3.189032468685079
0.0887801753680038 -0.03190717874666628 0.16197436151959022 0.5241751142880667 0.00708791586665953 0.8515810067220612 3.164961872704587
0.08673649003481822 -0.02909441403976313 0.16174592783774672 0.5402006970799612 -0.0013043991723115907 0.8415352074732959 3.1380104119066528
0.08673572950540297 -0.026204910464754736 0.16193284420689685 0.5463378527524485 -0.007804889151876966 0.8375285274873752 3.1179131222008682
0.08738655427513661 -0.023120644410610038 0.16205789745339133 0.5449887327920222 -0.01606508817700833 0.838289445282243 3.0922342007858576
0.08696655459843593 -0.01891897900388298 0.1619858654776869 0.5515148868765539 -0.01670014830514847 0.8339978624673614 3.0911479771216426
0.08403490893960168 -0.009237220705050701 0.16155136916181004 0.5782568127746396 -0.05009811432933218 0.814315195376066 3.003124472455017
0.08211496778868338 -0.006130847116292906 0.16142107324547283 0.595465163050495 -0.05762022625726892 0.8013121421264677 2.9878890903887085
0.08560285704143544 -0.0015990435668499046 0.16160257710925208 0.5811494446340231 -0.08331818782582506 0.8095204769361841 2.90984664068358
0.08821510881033925 0.0021757445318359866 0.16154096898859802 0.5671349101559838 -0.08843300382436522 0.8188636012895945 2.887098872985853
0.0906528963108934 0.0045072623232697085 0.16163263054349122 0.5530816159420656 -0.0932018547453519 0.8278974214109741 2.863953135385008
0.09166631115404 0.007220580673870198 0.16160613784872646 0.5517223543919112 -0.09667522682865409 0.8284059054484549 2.853177442815993
0.09452386340964221 0.013550763601438023 0.16140632216122547 0.5427525049802482 -0.11069406217944933 0.8325662393683027 2.8047209900162176
0.09506653538617531 0.016486340339818505 0.1614108990528801 0.5504845741028253 -0.11457693228258746 0.8269455001773348 2.800631598452406
0.09076090660078155 0.021899201890392735 0.16154895609159972 0.6049526774281494 -0.12781601583740054 0.7859359542405263 2.8127166188300126
0.09338254817092778 0.02876231086227554 0.16167698844243972 0.6126894102098116 -0.15148619581217795 0.7756697874064115 2.7633488718522483
0.09569844889331729 0.034865012098988346 0.16152371981678013 0.6122921415800423 -0.18696083917955125 0.7682082907471146 2.6813457747751865
0.09793981362133443 0.037295669170399386 0.16142432755661737 0.6064686838927091 -0.19173523286250313 0.7716432698706098 2.6631105407351536
0.09988525249885405 0.03966448075084727 0.16128914377336312 0.6013271154100162 -0.19719437574201187 0.7742868192397357 2.644220266944615
0.10250641687353287 0.043338970142816624 0.16124537448768597 0.5983109686200333 -0.21363175766225606 0.7722599672047571 2.603432889521876
0.10387867899804828 0.048775417714889746 0.16123517859493294 0.6101266129386057 -0.2467161158881885 0.7529121292322967 2.551703726866595
0.10802486621199346 0.0495977151958816 0.16113608147142414 0.594615954718943 -0.24758622247843082 0.7649398203993178 2.5249628895484584
0.10667995857098587 0.04639169911918537 0.1613319796382619 0.5899484590178299 -0.25100893530739415 0.7674342513195096 2.510326412850897
0.11025831448822423 0.04479265519599482 0.16102875734154018 0.5548373866059715 -0.22285584376580317 0.8015552054123832 2.520001182722246
0.11457721426094458 0.047361895550079455 0.16097490940825857 0.5407720861141089 -0.2354889870493168 0.8075335831148333 2.465003244435777
0.11814516454111158 0.04997621205667852 0.16090231519303358 0.5325795751514765 -0.24990100176744254 0.8086460816989727 2.415896797501593
0.12217302193227333 0.049519672494208904 0.1612336509752227 0.5095039912514683 -0.2505411949792044 0.8231857582084471 2.3712709489202433
0.12039915857391274 0.045686543059320336 0.16172824623034587 0.49910109556519194 -0.23156866642783647 0.8350293702226638 2.4025957249462917
0.11846556953872803 0.04379496555760614 0.16189406330583708 0.5019998689506702 -0.22609437946202424 0.8347918681618743 2.422358707008433
0.10755871147981538 0.03978942931059511 0.16111314395451562 0.5471662930113941 -0.21653835173081012 0.8085296469653253 2.5185989219310856
0.10127482461757734 0.03333638833339618 0.16106968138082173 0.5623403881193729 -0.18213245160344663 0.8065984490207447 2.627886505384217
0.09794098136072796 0.03204034530045802 0.1614971098259212 0.5897515660553522 -0.18630041723028087 0.7858022937578402 2.653837834814499
0.09573930466374635 0.025717607138731734 0.161416699092327 0.579963978744515 -0.15935342504432362 0.7989044181161317 2.709850541084966
0.09974809712571335 0.026944198745733675 0.16132216408317962 0.5519341538902118 -0.14612439434373975 0.8209849883811342 2.714126559395801
