0.03886145 0.07538228 0.004522447 0.264724 0.882483 0.387264
0.04241765 0.07544678 0.001044087 0.288578 0.935262 0.204707
0.05733259 0.074856 -0.007795278 -0.0823591 0.980923 0.176066
0.03860736 0.07660148 -0.00401511 0.168315 0.985656 -0.0102667
0.04423194 0.07533774 -0.006784082 0.238913 0.968332 -0.0721999
0.05419115 0.07428691 -0.006136403 -0.0349626 0.97691 0.210464
0.03966939 0.07629619 -0.001006059 0.145491 0.986451 0.0755986
0.03619674 0.07669085 -0.005563341 0.0544077 0.985871 -0.158136
0.03290723 0.07663808 -0.005096845 -0.138131 0.961671 -0.234746
0.02798683 0.07525184 -0.005484952 -0.292777 0.867225 -0.402689
0.02511115 0.07323661 -0.007129511 -0.343562 0.779971 -0.522891
0.02108959 0.07170947 -0.006519548 -0.391532 0.766039 -0.509697
0.01875615 0.07021518 -0.006846647 -0.418259 0.739797 -0.527026
0.01528227 0.06799056 -0.007008244 -0.455333 0.696603 -0.554348
0.013521 0.06575069 -0.00825546 -0.459351 0.690627 -0.558576
0.01049896 0.06321316 -0.008585721 -0.518502 0.63501 -0.572635
0.009132689 0.0641319 -0.00611449 -0.550501 0.663086 -0.507211
0.005881091 0.06173487 -0.005615299 -0.575412 0.642149 -0.506483
0.007053977 0.063822 -0.004202047 -0.574049 0.672053 -0.467702
0.0124817 0.06698122 -0.005772212 -0.515778 0.70062 -0.493037
0.009393722 0.06635542 -0.003251199 -0.552671 0.697363 -0.456304
0.01319687 0.06905114 -0.003380683 -0.502689 0.765204 -0.401929
0.01616587 0.07067283 -0.003835091 -0.456391 0.805848 -0.377165
0.01955899 0.0727881 -0.002999335 -0.408602 0.859491 -0.306445
0.02222504 0.07341501 -0.004443177 -0.377667 0.846741 -0.374644
0.02498794 0.07454231 -0.004582925 -0.337936 0.876751 -0.342059
0.02466559 0.07501794 -0.001838014 -0.300415 0.952002 -0.0581411
0.02894153 0.07620194 -0.002773606 -0.206166 0.973955 -0.0933043
0.03196744 0.07678673 -0.001760065 -0.146643 0.988796 -0.027596
0.03532808 0.07690074 -0.002797808 0.0134853 0.998852 0.0405288
0.03671288 0.07662287 -0.0003516796 0.076245 0.986221 0.146334
0.0321926 0.07676718 0.001244855 -0.0469849 0.975439 0.213294
0.03492915 0.07646659 0.00216599 0.0570008 0.990521 0.124621
0.03955692 0.07595371 0.001915503 0.173873 0.971247 0.16157
0.04373216 0.07545657 -0.001696851 0.293158 0.950552 0.101794
0.06074439 0.07387571 -0.005276213 0.016398 0.616799 0.786728
0.03608378 0.07527751 0.006174769 0.212949 0.858103 0.465787
0.04316185 0.07380471 0.003458676 0.576592 0.487076 0.655075
0.06397252 0.07077654 -0.004181465 0.102375 0.234235 0.966675
0.03888275 0.0713072 0.007947329 0.473218 0.363873 0.802263
0.06124061 0.07143104 -0.004137194 0.0881263 0.334199 0.93832
0.04166022 0.0694226 0.006895056 0.552899 0.302986 0.776206
0.06363484 0.0681669 -0.004904288 0.155212 -0.762579 0.627782
0.03691102 0.05133324 0.007685677 0.689813 -0.502825 0.52081
0.04022118 0.05335566 0.00514233 0.710349 -0.555485 0.432012
0.06346965 0.0667593 -0.0072384 0.147256 -0.901908 0.405866
0.02884471 0.03857805 0.004659703 0.755072 -0.608144 0.244418
0.03272147 0.04260014 0.001938768 0.760075 -0.62922 0.162032
0.03680194 0.04713498 0.0008007195 0.752783 -0.646273 0.124422
0.04467487 0.0549697 -0.004458404 0.740868 -0.669522 0.0528957
0.05949672 0.06515145 -0.009532928 0.236966 -0.934746 0.264587
0.03465253 0.04513893 0.002758825 0.763099 -0.608051 0.218914
0.03892744 0.04945271 0.0006627738 0.714241 -0.682533 0.153982
0.04227554 0.05291655 -0.000190105 0.726772 -0.663332 0.176919
0.06086277 0.06682083 -0.006096736 0.186487 -0.869578 0.457166
0.0308881 0.04126423 0.004706478 0.768336 -0.575493 0.279948
0.03266881 0.04407246 0.005603564 0.734598 -0.580059 0.351959
0.03702317 0.04927919 0.005012953 0.720065 -0.576809 0.385733
0.04100668 0.05251914 0.002285936 0.724537 -0.610474 0.31993
0.04485763 0.0555631 -0.001324337 0.738594 -0.636974 0.219742
0.05851394 0.06524993 -0.01311572 0.0398719 -0.629079 -0.776034
0.05567466 0.06500804 -0.01304709 0.0461278 -0.510719 -0.858328
0.04740685 0.06172129 -0.01319109 0.281368 -0.340946 -0.896904
0.04922431 0.06442087 -0.01354917 0.155657 -0.229518 -0.960755
0.05251652 0.0645552 -0.0131312 0.125299 -0.322184 -0.938247
0.04998861 0.06115306 -0.0118287 0.383682 -0.758678 -0.526271
0.04819845 0.05904865 -0.01023908 0.602254 -0.752933 -0.264515
0.0530523 0.06248893 -0.01016508 0.519058 -0.854402 -0.0105195
0.04601276 0.05688209 -0.00931386 0.629507 -0.742938 -0.22691
0.05152104 0.06154512 -0.008098236 0.567033 -0.802182 0.185078
0.04694926 0.05733113 -0.006189893 0.721972 -0.69057 -0.0293444
0.05585847 0.06436524 -0.008244836 0.396384 -0.882428 0.253157
0.04896078 0.05937632 -0.006490604 0.698155 -0.712585 0.0680329
0.05329191 0.06325555 -0.00650141 0.608531 -0.759075 0.229953
0.0564946 0.06556492 -0.005815393 0.39151 -0.832003 0.392945
0.03909058 0.05114699 0.003933154 0.726152 -0.589226 0.354184
0.04369406 0.05525441 0.001222753 0.753065 -0.576054 0.317803
0.0606444 0.06840925 -0.003847292 0.228847 -0.569586 0.786598
0.03431979 0.04858894 0.008457895 0.677418 -0.497704 0.541646
0.03483836 0.04719876 0.006101124 0.736812 -0.556553 0.383778
0.04224147 0.05479471 0.003587953 0.739699 -0.542093 0.398598
0.04582793 0.05779959 0.0007054132 0.764665 -0.555629 0.326407
0.05803294 0.06740971 -0.003841912 0.34084 -0.761014 0.551275
0.03281611 0.04624405 0.00819418 0.712143 -0.503705 0.48901
0.03096768 0.04347776 0.007985543 0.705264 -0.526115 0.474811
0.0288822 0.04013839 0.007301221 0.754195 -0.537076 0.377732
0.02622665 0.03563682 0.005967773 0.788423 -0.554043 0.267211
0.0245627 0.03306317 0.005480865 0.800658 -0.558045 0.217682
0.02229096 0.0295106 0.005026029 0.822192 -0.539119 0.182445
0.01869817 0.02363335 0.005024211 0.855594 -0.503572 0.119236
0.01598963 0.01874282 0.00404969 0.876175 -0.481819 0.0124629
0.01337376 0.01369981 0.00399846 0.898481 -0.438239 -0.0251887
0.01203863 0.01089844 0.003324067 0.904193 -0.417818 -0.0885259
0.008310308 0.001241627 0.001868776 0.948214 -0.289748 -0.130099
0.006782212 -0.003316194 0.001122423 0.945439 -0.291216 -0.146013
0.004230621 -0.0119043 -0.0008158524 0.958775 -0.200071 -0.201763
0.003555477 -0.01493176 -0.00116644 0.963836 -0.179538 -0.196931
0.003097193 -0.01804269 -0.0006968335 0.970317 -0.166687 -0.175191
0.002684053 -0.021195 -0.0001569873 0.976813 -0.149455 -0.153111
0.002177382 -0.02516017 0.0004831281 0.985656 -0.138043 -0.0970754
0.001821079 -0.02847748 0.001632396 0.9921 -0.116871 -0.0441626
0.00122317 -0.03501016 0.002355341 0.994645 -0.102078 -0.011534
0.0006839457 -0.04038562 0.0002632616 0.994438 -0.0540599 -0.090314
0.0009728138 -0.03798573 0.002195005 0.997272 -0.0724418 -0.0131525
0.0005638977 -0.04400297 0.001781831 0.999098 -0.0418937 -0.00493148
0.0004184683 -0.05210356 0.002150851 0.996873 -0.0159244 0.0767058
0.000532256 -0.05850199 0.0008974632 0.999328 0.0149974 -0.0255839
0.0005171047 -0.06123791 0.002249983 0.994249 0.0435091 0.0973815
0.0003527054 -0.05614986 0.002880598 0.992617 0.000959148 0.121237
-3.796596e-05 -0.05408601 0.004683798 0.935789 -0.012886 0.350746
0.000109432 -0.05058558 0.00460985 0.962831 -0.0403552 0.266805
0.0002254767 -0.04750979 0.004420983 0.980826 -0.0183117 0.193757
0.0003430723 -0.04458795 0.004555085 0.981784 -0.0558754 0.180728
0.0004247404 -0.04176258 0.005026839 0.973461 -0.0723855 0.216557
0.0009363028 -0.03546232 0.005145274 0.979292 -0.0965286 0.177143
0.001579361 -0.03048332 0.003720572 0.994029 -0.0951282 0.0527108
0.001862022 -0.02759358 0.004388714 0.990258 -0.110851 0.0833329
0.003460464 -0.01796908 0.002057696 0.981613 -0.185183 -0.0447887
0.004509958 -0.012529 0.00191615 0.97497 -0.204185 -0.0878602
0.005066338 -0.009518037 0.0007836987 0.962387 -0.232675 -0.140147
0.006128651 -0.005925017 0.001634716 0.955414 -0.264391 -0.131276
0.007626263 -0.001214686 0.003253164 0.951813 -0.298396 -0.0707477
0.009395958 0.004081192 0.003825835 0.944779 -0.323572 -0.0513834
0.01055207 0.007297396 0.003449999 0.931636 -0.360941 -0.0420828
0.00848253 0.001260927 0.004946781 0.945958 -0.323464 0.0200874
0.007158305 -0.002781964 0.005601102 0.942187 -0.319168 0.0979543
0.005003875 -0.01066172 0.003971379 0.969309 -0.245761 0.00345397
0.004125878 -0.01469599 0.003627426 0.980604 -0.195779 -0.00303862
0.002764433 -0.02177672 0.003929881 0.983315 -0.171668 0.0589535
0.002183825 -0.02485368 0.00505312 0.977948 -0.154982 0.139035
0.0008790388 -0.03288514 0.006174757 0.954758 -0.0931174 0.282289
0.001071586 -0.02999776 0.00663469 0.934783 -0.0944426 0.341742
0.001305449 -0.02547467 0.00756798 0.912672 -0.149191 0.380472
0.003024268 -0.0180505 0.006521977 0.936676 -0.191832 0.292973
0.003667011 -0.0152752 0.006342785 0.93692 -0.191157 0.292573
0.005791011 -0.007517091 0.004812616 0.964645 -0.254635 0.0666614
0.004051485 -0.01263854 0.006958338 0.928075 -0.207535 0.309175
0.004577811 -0.009498193 0.007660057 0.927094 -0.227799 0.297573
0.005737657 -0.004703296 0.00822132 0.886104 -0.263683 0.380918
0.007648543 0.001256107 0.008314343 0.885483 -0.308952 0.347024
0.009686929 0.005453073 0.006468444 0.912432 -0.31441 0.261838
0.01154606 0.01024867 0.006427673 0.895826 -0.394186 0.204831
0.01415933 0.01575909 0.006267264 0.871676 -0.442431 0.210102
0.01617827 0.01984779 0.00671468 0.844831 -0.463021 0.267784
0.01955307 0.02584552 0.006853497 0.822223 -0.501242 0.269433
0.01792221 0.02380403 0.007993488 0.824966 -0.459239 0.329253
0.02118019 0.02897804 0.007590282 0.806746 -0.494364 0.323411
0.02294892 0.03149197 0.007121011 0.799874 -0.516291 0.305869
0.02684432 0.03776021 0.007969445 0.754571 -0.528395 0.389112
0.02488722 0.03585041 0.009148906 0.747291 -0.487687 0.451081
0.02203066 0.03211519 0.009788391 0.738302 -0.46346 0.489983
0.02270734 0.03480424 0.01124979 0.696715 -0.464668 0.546504
0.02661202 0.03983337 0.01048725 0.699855 -0.471267 0.536742
0.02880798 0.04243206 0.009927547 0.697154 -0.487056 0.526061
0.03178232 0.04738005 0.01047541 0.656657 -0.443802 0.609707
0.03487989 0.0510685 0.009848448 0.656971 -0.429491 0.619575
0.03971872 0.05520367 0.007663065 0.663856 -0.49231 0.562954
0.04409324 0.05825499 0.00454923 0.728866 -0.470338 0.49749
0.05512254 0.06642869 -0.002874285 0.484009 -0.719962 0.496946
0.04745858 0.05830225 -0.002827722 0.766451 -0.610087 0.200386
0.05044825 0.06117894 -0.004551846 0.705814 -0.679533 0.199468
0.05326351 0.0643949 -0.00379189 0.654598 -0.676126 0.338088
0.05083751 0.06268009 -0.002295477 0.710831 -0.606318 0.356423
0.05228048 0.06509194 -0.001325402 0.672137 -0.48378 0.559907
0.04826245 0.06115117 0.0005625562 0.761864 -0.508849 0.400749
0.04987754 0.06355634 0.0004758663 0.737945 -0.453185 0.499511
0.05685207 0.0709917 -0.003450843 0.13994 0.386776 0.911474
0.04416658 0.07084265 0.00419019 0.639804 0.354573 0.681739
0.05758948 0.07393442 -0.005183627 0.0499138 0.716581 0.694465
0.04560319 0.07410298 0.0005033353 0.586522 0.679873 0.436755
0.05392791 0.07274653 -0.003827147 0.175016 0.55949 0.810036
0.04749965 0.0737837 -0.00142079 0.495318 0.768473 0.404537
0.05102229 0.07349993 -0.003690993 0.235027 0.778057 0.580219
0.0474732 0.07446671 -0.00426542 0.250262 0.964274 0.0860891
0.0508466 0.07417365 -0.006608163 -0.0237144 0.996062 0.0853868
0.04688033 0.07464533 -0.00784 0.21113 0.97554 -0.0576367
0.05136519 0.0709554 -0.002066433 0.375226 0.419737 0.826412
0.04709438 0.07114348 0.0009941836 0.664523 0.401765 0.629865
0.05319974 0.06889639 -0.001697861 0.278581 0.403035 0.871674
0.04371903 0.06799864 0.005828432 0.617091 0.268253 0.739734
0.05122893 0.06735018 -0.0001320385 0.450533 0.343009 0.823971
0.04939593 0.06986391 -0.0003378393 0.541874 0.409071 0.734058
0.04793863 0.06847084 0.001599618 0.620303 0.35034 0.701679
0.04579808 0.06661946 0.004512618 0.64882 0.288511 0.704109
0.04801901 0.06436671 0.003141427 0.719172 -0.00324495 0.694559
0.04594079 0.06388251 0.005223397 0.674421 0.0839174 0.733409
0.0469864 0.06159377 0.003186316 0.766312 -0.384812 0.514289
0.04442035 0.06142917 0.006391392 0.724184 -0.227939 0.650671
0.04256216 0.05995432 0.007780745 0.683784 -0.309218 0.660796
0.04034496 0.06005953 0.009597077 0.55595 -0.0634187 0.828225
0.04392316 0.06529658 0.006508864 0.594454 0.208573 0.776607
0.04093685 0.06617057 0.008406411 0.512603 0.195671 0.836004
0.04061496 0.06330124 0.009162109 0.49572 0.134725 0.857878
0.03827467 0.065863 0.009909616 0.432477 0.172084 0.885065
0.03801981 0.06864879 0.009375273 0.437171 0.254477 0.862585
0.0352153 0.07115893 0.009758157 0.349988 0.355246 0.866697
0.03419717 0.0736143 0.008861765 0.229462 0.603982 0.763054
0.02988372 0.07351111 0.009818124 0.0311545 0.695668 0.716554
0.03131271 0.07543293 0.006464869 -0.10135 0.959916 0.261265
0.03226224 0.07614195 0.003937075 -0.0523751 0.975344 0.21434
0.02772609 0.07596809 -0.0003096639 -0.266377 0.963614 0.0216669
0.02158944 0.07397169 -0.001080649 -0.36431 0.930391 -0.0401451
0.01549981 0.07118838 -0.001042764 -0.46527 0.880828 -0.0867285
0.01163311 0.06894039 0.0003839381 -0.552276 0.833345 -0.0222722
0.007813602 0.06623165 -0.0004188954 -0.585059 0.803089 -0.111087
0.005532151 0.06436957 -0.0006966132 -0.633815 0.750691 -0.186223
0.004414212 0.06258509 -0.002552611 -0.620485 0.687748 -0.376755
0.002987965 0.06039858 -0.003834953 -0.618075 0.631166 -0.468616
0.001459323 0.05818692 -0.004634948 -0.627315 0.60183 -0.494221
-0.001870083 0.05502906 -0.003994031 -0.67031 0.574512 -0.469671
-0.004113521 0.04985266 -0.006869014 -0.66669 0.537375 -0.516305
-0.006296513 0.04509459 -0.008567207 -0.677107 0.471912 -0.564569
-0.008111428 0.04111967 -0.009495108 -0.682945 0.431616 -0.589291
-0.009437226 0.0387068 -0.009668389 -0.699477 0.418267 -0.579444
-0.01059356 0.03585925 -0.01022914 -0.688932 0.402577 -0.602743
-0.01320847 0.03310307 -0.008906439 -0.726563 0.376768 -0.574582
-0.01366815 0.02921065 -0.01065098 -0.714376 0.341896 -0.61054
-0.01503795 0.02622309 -0.01076178 -0.70583 0.333051 -0.625169
-0.016841 0.02608314 -0.00865893 -0.746198 0.337097 -0.574056
-0.01806278 0.02257057 -0.00906835 -0.754425 0.324216 -0.570691
-0.01961863 0.01935269 -0.008752616 -0.760326 0.288895 -0.581746
-0.0208367 0.01615501 -0.008736592 -0.777904 0.288783 -0.558035
-0.02249182 0.01102361 -0.008888591 -0.772875 0.263623 -0.577204
-0.02291226 0.01376098 -0.007035131 -0.800791 0.288077 -0.525097
-0.02448892 0.009713273 -0.006705035 -0.803345 0.247185 -0.541787
-0.02563128 0.006428338 -0.00653844 -0.812967 0.256394 -0.522822
-0.02680916 0.004022416 -0.005823613 -0.830555 0.233132 -0.505704
-0.02708865 0.001356418 -0.006553955 -0.820238 0.240019 -0.519206
-0.02874047 -2.304176e-05 -0.004387375 -0.844422 0.221441 -0.487751
-0.02924673 -0.005914768 -0.006146144 -0.849452 0.210105 -0.484011
-0.0292751 -0.002865966 -0.0047573 -0.851867 0.230474 -0.470317
-0.03037669 -0.008430243 -0.005123075 -0.864105 0.192138 -0.465058
-0.03055951 -0.011242 -0.005878851 -0.859849 0.175731 -0.479324
-0.0311179 -0.01497316 -0.00611479 -0.869338 0.149121 -0.47093
-0.03091662 -0.02147585 -0.00848227 -0.846494 0.145098 -0.512192
-0.03160126 -0.02493714 -0.008180567 -0.863531 0.124908 -0.488494
-0.03234737 -0.02765782 -0.007482298 -0.879069 0.112383 -0.463249
-0.03250789 -0.03176919 -0.007917017 -0.87974 0.0618485 -0.4714
-0.03347389 -0.03495644 -0.006348606 -0.899144 0.0402805 -0.435787
-0.03215655 -0.04112428 -0.008708791 -0.842416 -0.029798 -0.537949
-0.03271971 -0.04405883 -0.00758548 -0.872553 -0.0410375 -0.486783
-0.03292374 -0.0476068 -0.006854622 -0.882299 -0.0579429 -0.467078
-0.03158486 -0.05223126 -0.008565499 -0.858587 -0.0791107 -0.506522
-0.03273958 -0.05051735 -0.00675938 -0.888755 -0.0645559 -0.453802
-0.03238663 -0.05467792 -0.00661662 -0.900673 -0.0807787 -0.426884
-0.03213967 -0.05800891 -0.006385329 -0.895066 -0.105648 -0.433181
-0.03150625 -0.06256727 -0.006300126 -0.881431 -0.154791 -0.446198
-0.03075172 -0.06528847 -0.007027486 -0.885569 -0.123822 -0.447485
-0.03058798 -0.06856784 -0.006193927 -0.900481 -0.172423 -0.399136
-0.02969905 -0.07116709 -0.006846753 -0.865294 -0.226961 -0.446935
-0.03165484 -0.06649027 -0.004651564 -0.914324 -0.140718 -0.37967
-0.03267916 -0.06085509 -0.004283662 -0.9297 -0.122453 -0.347325
-0.03268911 -0.0636002 -0.003217734 -0.937597 -0.168443 -0.303795
-0.03123835 -0.0705358 -0.003458177 -0.936444 -0.232226 -0.26288
-0.03041155 -0.07318377 -0.003881112 -0.926965 -0.263971 -0.266519
-0.02989124 -0.07563966 -0.002791164 -0.93936 -0.317607 -0.128924
-0.02878007 -0.07842424 -0.003485238 -0.922801 -0.336208 -0.188115
-0.02774466 -0.08135708 -0.002894436 -0.921009 -0.38212 -0.0745538
-0.02611282 -0.08454235 -0.003137966 -0.872847 -0.48672 -0.031941
-0.02388336 -0.08905948 -0.002899423 -0.891854 -0.451997 0.0167917
-0.02271609 -0.09157632 -0.002645585 -0.909354 -0.411542 0.0597266
-0.02076371 -0.09503937 -0.004192112 -0.845371 -0.525074 -0.0975078
-0.01927008 -0.09726977 -0.003547565 -0.802632 -0.596337 0.00987433
-0.01697975 -0.09984398 -0.003923601 -0.682173 -0.726375 -0.0816229
-0.02001969 -0.09576832 -0.0009727575 -0.820251 -0.539562 0.189417
-0.02146328 -0.09344256 -0.000485307 -0.848206 -0.47291 0.238356
-0.0233959 -0.08935909 8.330213e-05 -0.860489 -0.460002 0.215767
-0.02497611 -0.08673081 -0.001819093 -0.903978 -0.420608 0.0767101
-0.02848373 -0.0795539 -0.0008549136 -0.917289 -0.395494 0.0464328
-0.02953919 -0.07678223 -9.878162e-05 -0.931795 -0.350129 0.0953125
-0.0304517 -0.07402039 0.000395991 -0.942407 -0.314944 0.112488
-0.03198215 -0.06906413 -0.0002529203 -0.971665 -0.232828 0.039822
-0.03253007 -0.06640094 -0.001613995 -0.97564 -0.191322 -0.106752
-0.0335122 -0.0601901 -0.00153241 -0.985881 -0.120543 -0.115639
-0.03339957 -0.0562243 -0.003815498 -0.943844 -0.100263 -0.314668
-0.03362309 -0.0526438 -0.004248763 -0.929222 -0.0966415 -0.356654
-0.03426532 -0.04727814 -0.003839934 -0.945687 -0.0648047 -0.318531
-0.03415152 -0.04441812 -0.004637799 -0.921994 -0.0552267 -0.383195
-0.03354362 -0.03940206 -0.006335644 -0.899684 -0.0111562 -0.436376
-0.03465968 -0.03898432 -0.003683238 -0.939685 -0.0154504 -0.341681
-0.034655 -0.04191674 -0.00356687 -0.947955 -0.0218495 -0.317575
-0.03466931 -0.0345321 -0.003471264 -0.93653 0.0257775 -0.349585
-0.03379017 -0.03189602 -0.00531364 -0.915775 0.0533245 -0.398126
-0.03368804 -0.02902937 -0.005012376 -0.917254 0.0842834 -0.389249
-0.03231378 -0.02295615 -0.006273201 -0.88151 0.138446 -0.451411
-0.03117879 -0.0183715 -0.00709774 -0.880894 0.148786 -0.449253
-0.03274561 -0.01806271 -0.003926312 -0.901135 0.133206 -0.412544
-0.03347958 -0.02473473 -0.004426923 -0.902719 0.104993 -0.417198
-0.03383961 -0.020814 -0.002286372 -0.921785 0.1316 -0.364675
-0.03231125 -0.01400531 -0.003448921 -0.894909 0.151097 -0.419865
-0.03162904 -0.01012226 -0.0033832 -0.884156 0.184074 -0.429393
-0.03139919 -0.006674083 -0.002273271 -0.893213 0.194337 -0.405457
-0.030424 -0.001040588 -0.001428759 -0.902903 0.221574 -0.368299
-0.02868677 0.002589693 -0.00323451 -0.86338 0.233081 -0.447466
-0.02778502 0.005969463 -0.003202645 -0.859024 0.269885 -0.43455
-0.02624639 0.008786591 -0.004424884 -0.825072 0.274562 -0.493823
-0.02518767 0.01299893 -0.003819285 -0.837985 0.273029 -0.472463
-0.02335871 0.01663857 -0.004714674 -0.815235 0.301802 -0.494269
-0.02138192 0.01878818 -0.00658228 -0.790156 0.313202 -0.526821
-0.01992029 0.02195159 -0.006894221 -0.780973 0.30859 -0.542982
-0.01876963 0.02507853 -0.006656753 -0.78064 0.338269 -0.525502
-0.01552585 0.02907797 -0.008535356 -0.721618 0.353563 -0.595173
-0.01508685 0.03180608 -0.00733622 -0.73349 0.385995 -0.559427
-0.01354829 0.03526818 -0.006929719 -0.744986 0.410405 -0.52588
-0.01112721 0.03893416 -0.007389398 -0.720139 0.424385 -0.548904
-0.009106325 0.04304632 -0.006706099 -0.722969 0.472149 -0.504337
-0.01124524 0.04094791 -0.005454881 -0.748468 0.459139 -0.478497
-0.006758335 0.04717144 -0.006048067 -0.710998 0.51527 -0.47849
-0.008662044 0.04566095 -0.004770155 -0.732895 0.506517 -0.454098
-0.007262701 0.04857132 -0.00369484 -0.724773 0.525942 -0.445021
-0.003726463 0.05204677 -0.004940585 -0.681197 0.555487 -0.476863
-0.005609881 0.05177577 -0.002446713 -0.713455 0.560915 -0.419883
-0.01021876 0.04532626 -0.002529535 -0.753006 0.496078 -0.432284
-0.01193391 0.04230856 -0.002786664 -0.790771 0.462836 -0.400532
-0.0133993 0.0390875 -0.003687986 -0.765817 0.47628 -0.432029
-0.01593992 0.03528036 -0.003202073 -0.774152 0.441287 -0.4538
-0.01683548 0.03256717 -0.004127246 -0.779889 0.412419 -0.470796
-0.01814586 0.02762504 -0.005875598 -0.774979 0.362778 -0.517485
-0.01799572 0.03009159 -0.004289587 -0.789904 0.388777 -0.474233
-0.02021598 0.02507869 -0.004341027 -0.80227 0.352098 -0.482061
-0.021229 0.02248362 -0.004461744 -0.811931 0.320956 -0.487588
-0.02281328 0.01924735 -0.003985759 -0.819091 0.324721 -0.472881
-0.02470201 0.01857258 -0.0006583248 -0.894121 0.345144 -0.285277
-0.02291887 0.02299363 -0.0007026838 -0.889298 0.350138 -0.294107
-0.02193029 0.02572019 -0.0001879242 -0.891098 0.373044 -0.258258
-0.0198145 0.02917715 -0.001770823 -0.833064 0.39145 -0.390748
-0.01863299 0.03164198 -0.001719556 -0.828864 0.41349 -0.376584
-0.0180351 0.033893 -0.000198969 -0.863459 0.436436 -0.252775
-0.01602378 0.03739657 -0.000506386 -0.817153 0.502085 -0.282305
-0.01383352 0.04073261 -0.0006994103 -0.78461 0.532563 -0.317363
-0.01173832 0.0447262 -7.160714e-05 -0.832943 0.495298 -0.246577
-0.009894703 0.04745901 -0.0002067549 -0.79551 0.544161 -0.266359
-0.008144104 0.04987132 -0.000292659 -0.766339 0.563867 -0.307564
-0.006278778 0.05249973 0.000119947 -0.734624 0.629607 -0.25195
-0.003423375 0.05555289 -0.000513737 -0.727746 0.626797 -0.278285
-0.001200617 0.05791493 -0.0006314144 -0.710953 0.672942 -0.202881
0.0007512095 0.05997127 -0.000658658 -0.696232 0.693107 -0.185863
0.003461957 0.06274776 3.051915e-05 -0.662236 0.743855 -0.0877917
0.001890934 0.06125402 0.001863529 -0.667454 0.738132 0.0978921
0.00398634 0.06303987 0.002779741 -0.64378 0.758719 0.0992454
0.006153728 0.06495979 0.002087675 -0.60934 0.790254 0.064465
0.009241097 0.06728946 0.002010652 -0.574435 0.816796 0.0534781
0.01344677 0.06995517 0.002473621 -0.497134 0.863109 0.0886888
0.01646436 0.07165264 0.002049113 -0.454944 0.887136 0.0769062
0.0191863 0.07291965 0.001857847 -0.388964 0.917283 0.0852558
0.02178145 0.07391451 0.002238032 -0.35155 0.931355 0.0945621
0.02470838 0.07474477 0.003633511 -0.292001 0.942514 0.162381
0.02780795 0.07565663 0.003207407 -0.209267 0.963422 0.16734
0.02511495 0.07417274 0.006560586 -0.267066 0.916194 0.298496
0.02209438 0.07328415 0.006287511 -0.295943 0.918583 0.261865
0.01777737 0.07186307 0.004747555 -0.409428 0.893079 0.18644
0.01560052 0.07053607 0.005698602 -0.46959 0.852851 0.228209
0.01137227 0.06808062 0.005547508 -0.509078 0.827436 0.236965
0.007941017 0.06606533 0.004291331 -0.602898 0.787427 0.128278
0.005827472 0.06425945 0.005083966 -0.620754 0.766478 0.164638
0.002810233 0.06152854 0.005619177 -0.662804 0.733174 0.151983
0.0006363687 0.05972731 0.003858079 -0.676581 0.724322 0.132586
-0.001575534 0.05774962 0.002149963 -0.708237 0.69934 0.0958726
-0.004954369 0.05398294 0.002606937 -0.753341 0.64569 0.124403
-0.007009968 0.05173168 0.00268141 -0.762997 0.626464 0.158476
-0.008732407 0.0495842 0.002600307 -0.802458 0.579089 0.142207
-0.01036275 0.04731223 0.002674641 -0.800838 0.579326 0.14937
-0.01234172 0.04452843 0.002613708 -0.824323 0.560523 0.0405025
-0.01362756 0.04217708 0.001948995 -0.828609 0.536413 -0.159889
-0.01658221 0.0373725 0.002301705 -0.873451 0.485964 0.0268762
-0.0194146 0.03179002 0.001252885 -0.89286 0.440145 -0.0943223
-0.02062333 0.02921572 0.001061576 -0.899084 0.421177 -0.118837
-0.02164516 0.02697285 0.002612878 -0.915993 0.384966 0.112284
-0.02297884 0.02387279 0.002390186 -0.924096 0.372201 0.0859143
-0.02407714 0.02127512 0.001987185 -0.926885 0.373914 0.0310119
-0.0258163 0.01591528 -0.00019781 -0.90743 0.335229 -0.252935
-0.02648802 0.01336631 -0.0009038028 -0.908078 0.296479 -0.295694
-0.02687196 0.01061941 -0.00212507 -0.881895 0.276157 -0.382095
-0.02841602 0.007481757 -0.0007750686 -0.921205 0.262536 -0.284758
-0.02992912 0.001841261 -0.0008712834 -0.926591 0.23916 -0.289617
-0.02933494 0.004888442 0.0001239271 -0.954645 0.248804 -0.163284
-0.02793651 0.01014466 0.0007678422 -0.948422 0.296463 -0.111513
-0.02892135 0.006917531 0.001891821 -0.961145 0.272781 0.0396555
-0.03010458 0.002516319 0.001830879 -0.967034 0.254003 0.0113267
-0.03082114 -0.0004276227 0.001424468 -0.974757 0.221139 -0.0275765
-0.03132062 -0.003035391 0.0002477698 -0.969578 0.216845 -0.113252
-0.0320819 -0.006147819 0.000625931 -0.97106 0.225446 -0.0747457
-0.03264141 -0.008813538 0.0004671457 -0.97319 0.201764 -0.109446
-0.03322756 -0.01223139 -0.000244964 -0.96598 0.17509 -0.189552
-0.03406484 -0.01804842 -0.0004406386 -0.947062 0.137178 -0.290093
-0.03479395 -0.02236842 8.053451e-05 -0.980407 0.13846 -0.137728
-0.03496784 -0.02523006 -0.0006008808 -0.958504 0.108527 -0.263303
-0.03464045 -0.02861573 -0.002496434 -0.94369 0.070886 -0.323139
-0.03502605 -0.03196067 -0.002104332 -0.951279 0.0515838 -0.303878
-0.03543749 -0.0286576 0.0002612829 -0.983141 0.116887 -0.139056
-0.03569033 -0.03132186 0.0009797715 -0.993149 0.0481802 0.0935565
-0.03571299 -0.03471772 0.001127958 -0.996906 -0.0175128 0.074877
-0.03564058 -0.03777114 0.0009055868 -0.998271 -0.0277071 0.0514905
-0.03554091 -0.04021169 -0.0005348906 -0.995942 -0.00025647 -0.0852126
-0.03535909 -0.0432898 -0.001072918 -0.981581 -0.0765244 -0.17428
-0.03511402 -0.04645104 -0.001165653 -0.981428 -0.0640072 -0.179697
-0.0346076 -0.05061075 -0.001820929 -0.973605 -0.118476 -0.194723
-0.03417928 -0.05410255 -0.001842055 -0.974996 -0.128273 -0.181205
-0.03391577 -0.05729016 -0.001213811 -0.98753 -0.120937 -0.100446
-0.03437896 -0.05341453 0.001004438 -0.9856 -0.144985 0.0868364
-0.03374542 -0.05775047 0.001809933 -0.984552 -0.111284 0.134811
-0.03300537 -0.0638411 0.0006275702 -0.985645 -0.130043 0.106472
-0.03314876 -0.06071836 0.002661652 -0.970643 -0.144529 0.192165
-0.03254372 -0.06345617 0.003316631 -0.944554 -0.195253 0.263754
-0.03198519 -0.06655996 0.00304492 -0.940992 -0.203649 0.270083
-0.03097264 -0.07099523 0.002694818 -0.921615 -0.26921 0.279414
-0.0294396 -0.07479999 0.003450472 -0.872926 -0.360574 0.328506
-0.0286147 -0.07740794 0.002771469 -0.87732 -0.373859 0.300808
-0.02742132 -0.08114295 0.001322753 -0.840505 -0.437188 0.319782
-0.02581265 -0.08446754 0.0004484623 -0.851688 -0.485921 0.195886
-0.02432961 -0.08624716 0.00215816 -0.852792 -0.438378 0.283647
-0.02536133 -0.08371512 0.003239891 -0.831971 -0.458082 0.312703
-0.02227963 -0.08966919 0.002903714 -0.81224 -0.458655 0.358946
-0.02122454 -0.09211093 0.002298682 -0.828741 -0.432435 0.355191
-0.01881975 -0.09576109 0.002216122 -0.663496 -0.557865 0.498253
-0.01752521 -0.09832872 0.0007451507 -0.663951 -0.666394 0.339164
-0.01506367 -0.1002381 0.0005716599 -0.3326 -0.779218 0.53083
-0.01390303 -0.1014223 -0.001646253 -0.0511816 -0.993891 -0.00907858
-0.01077993 -0.1011662 -0.0006574893 0.113714 -0.983153 0.141422
-0.008496638 -0.100495 -0.003254708 0.284446 -0.926588 -0.245569
-0.004689252 -0.09838168 -0.005791432 0.490671 -0.819479 -0.296094
-0.005734308 -0.09952049 -0.003383613 0.393925 -0.903613 -0.168018
-0.005223341 -0.09910225 -0.000228186 0.630431 -0.71406 0.30337
-0.008006411 -0.1002433 0.0006379193 0.336048 -0.856453 0.390916
-0.01083098 -0.1001788 0.001943302 0.0204157 -0.730701 0.682357
-0.006899368 -0.09827174 0.002438935 0.496167 -0.593576 0.633581
-0.008838345 -0.09725119 0.004156662 0.228445 -0.521543 0.821882
-0.005702987 -0.09533495 0.003538611 0.589351 -0.414356 0.693483
-0.003174269 -0.09244489 0.002524622 0.74595 -0.324356 0.581566
-0.00238386 -0.08923745 0.002947755 0.774867 -0.259409 0.576316
-0.001077141 -0.0855812 0.002191318 0.884915 -0.192935 0.423351
-0.0005948835 -0.08704281 -0.0002916768 0.984695 -0.141655 0.0958242
-0.0001469724 -0.08321043 0.0006594895 0.966509 -0.0985714 0.231633
-0.0003707052 -0.08082926 0.002085753 0.920189 -0.151276 0.360825
-0.0004850436 -0.07550035 0.003880503 0.879414 -0.106213 0.464019
-0.000315196 -0.07255917 0.004136333 0.893241 -0.0767811 0.442887
0.0006378649 -0.07059772 0.001963157 0.98936 -0.00529758 0.143784
0.0003694078 -0.06662411 0.003304688 0.933054 -0.0170542 0.359012
-0.0003838795 -0.0635661 0.005187097 0.896374 -0.0169849 0.442904
-0.001016114 -0.06830469 0.00595432 0.860522 -0.0438285 0.507516
-0.001488849 -0.07140908 0.006320225 0.807565 -0.0730894 0.584974
-0.002062608 -0.07469144 0.006478308 0.755842 -0.122516 0.643145
-0.001560449 -0.0800171 0.004549909 0.820816 -0.131622 0.555681
-0.001999098 -0.08287032 0.00442218 0.792085 -0.124238 0.59747
-0.002721841 -0.0779759 0.006562567 0.740177 -0.165633 0.651674
-0.003697627 -0.08508586 0.005807778 0.667426 -0.211535 0.713956
-0.003838132 -0.08772095 0.005129443 0.65253 -0.235842 0.72011
-0.005162713 -0.0906361 0.005305738 0.578407 -0.26852 0.77023
-0.006963125 -0.09320521 0.005488256 0.471609 -0.337915 0.814466
-0.007098208 -0.08903141 0.007023875 0.457541 -0.247932 0.853874
-0.006127165 -0.08633727 0.00729431 0.519097 -0.258528 0.814667
-0.005445868 -0.08354788 0.007562678 0.572793 -0.155718 0.804759
-0.003864182 -0.08104725 0.0069064 0.658408 -0.189208 0.728342
-0.004852714 -0.07852276 0.008398353 0.603144 -0.192771 0.773861
-0.004033121 -0.0757625 0.008333882 0.633237 -0.127878 0.763279
-0.003920188 -0.07183328 0.008808506 0.649091 -0.105638 0.75332
-0.003311504 -0.06882785 0.008640357 0.68566 -0.0855098 0.722759
-0.002334671 -0.06542055 0.007932598 0.748275 -0.0506457 0.661415
-0.002104038 -0.06268639 0.007859592 0.74185 -0.0449012 0.66905
-0.0009830932 -0.05979476 0.006446777 0.867865 -0.025797 0.496053
-0.0008234395 -0.0569348 0.006287828 0.885416 -0.0292311 0.463836
-0.001196021 -0.05419378 0.0071585 0.865389 -0.0356979 0.499696
-0.001117151 -0.04903505 0.007491304 0.874043 -0.0656603 0.481253
-0.0006505853 -0.04582759 0.006994066 0.899074 -0.0613501 0.433343
0.0003098556 -0.03911848 0.006167185 0.924215 -0.0846965 0.372252
-0.0002558321 -0.03641327 0.007972753 0.882349 -0.0994288 0.459888
-0.001092832 -0.0388476 0.009013723 0.836579 -0.0974981 0.538927
-0.001533474 -0.04232585 0.009130553 0.845128 -0.0739118 0.529188
-0.002406928 -0.04684656 0.009703826 0.781684 -0.0744686 0.619093
-0.003079302 -0.05213103 0.009924915 0.735811 -0.079488 0.6725
-0.003198998 -0.05586824 0.009697579 0.721573 -0.0879037 0.686597
-0.003531691 -0.05884804 0.009688783 0.699012 -0.0730096 0.711294
-0.004558106 -0.06339379 0.01020146 0.62896 -0.0602921 0.77509
-0.004229539 -0.06633319 0.009679103 0.630167 -0.0596295 0.77415
-0.005654133 -0.06096217 0.01131553 0.607152 -0.0780047 0.790732
-0.005080478 -0.0548631 0.01154044 0.630485 -0.0860501 0.771381
-0.004185365 -0.04996448 0.01126984 0.688192 -0.0818554 0.720864
-0.004419528 -0.0470385 0.01181986 0.68134 -0.0892373 0.72646
-0.003090835 -0.04396722 0.01083918 0.735299 -0.0749437 0.673561
-0.003048244 -0.03788367 0.01158355 0.726093 -0.0889925 0.681797
-0.001243258 -0.03296011 0.01019927 0.786085 -0.103082 0.60917
-0.0003249386 -0.03028348 0.009472445 0.830346 -0.127426 0.542064
0.001679043 -0.02238928 0.007948061 0.900472 -0.152734 0.407203
0.001825825 -0.01901961 0.008982567 0.882154 -0.163161 0.441684
0.002349998 -0.01571719 0.009241177 0.867095 -0.173884 0.466796
0.002905547 -0.01271575 0.009505901 0.862187 -0.227042 0.452787
0.00465291 -0.007087712 0.008960317 0.87526 -0.247601 0.415457
0.006340094 -0.0008529075 0.009575013 0.8582 -0.285497 0.426584
0.008478703 0.003916892 0.008444417 0.887036 -0.298632 0.352098
0.0125301 0.01313195 0.007460301 0.865268 -0.412109 0.28542
0.01471124 0.01801952 0.008098574 0.843215 -0.424179 0.330223
0.01294505 0.0162739 0.0100002 0.788346 -0.38144 0.482682
0.01553755 0.02141877 0.01012589 0.76641 -0.427136 0.479756
0.01721737 0.02485335 0.01047725 0.762578 -0.431482 0.481959
0.01872476 0.02847333 0.01139946 0.737454 -0.433875 0.517594
0.02050353 0.03252234 0.0122752 0.709596 -0.409452 0.573288
0.01657881 0.0263838 0.01270472 0.724216 -0.419481 0.547194
0.01367292 0.02039994 0.01211085 0.735524 -0.404272 0.543648
0.01108693 0.01313836 0.01057358 0.799692 -0.365425 0.476384
0.009459 0.008255762 0.00985617 0.818935 -0.325376 0.472528
0.007817904 0.006008684 0.0111572 0.804406 -0.306271 0.50904
0.006970116 0.003346573 0.01098771 0.809748 -0.27337 0.519112
0.009464804 0.01052256 0.01137209 0.791249 -0.341032 0.507455
0.01130714 0.0162082 0.01244919 0.736828 -0.381431 0.558196
0.007425893 0.00813782 0.0129238 0.766968 -0.304715 0.564704
0.006093028 0.005000945 0.01311589 0.754428 -0.276544 0.595164
0.00506464 0.0007641441 0.01243212 0.781642 -0.26884 0.562791
0.004593022 -0.002928836 0.01126216 0.8041 -0.266144 0.531569
0.003205633 -0.009395853 0.01041502 0.824395 -0.224446 0.519583
0.001233176 -0.01423997 0.01154709 0.792468 -0.196569 0.577188
0.000370373 -0.0207419 0.01080463 0.813922 -0.164988 0.557009
-0.0003730197 -0.02530747 0.01062888 0.813344 -0.141824 0.564109
-0.001411111 -0.02843281 0.01129035 0.762258 -0.131311 0.633772
-0.002822484 -0.03489235 0.01174338 0.72386 -0.0920803 0.683752
-0.003606156 -0.03179276 0.01299925 0.674604 -0.108599 0.730094
-0.003339072 -0.02872673 0.01329051 0.680166 -0.128792 0.721608
-0.00142211 -0.02209682 0.01273264 0.74536 -0.158246 0.64752
-0.0005499257 -0.01834606 0.01262452 0.751039 -0.161414 0.640207
-0.0005861541 -0.01469725 0.01362547 0.720976 -0.176356 0.670131
0.0001356426 -0.01193896 0.01360983 0.747253 -0.17576 0.640754
0.002681779 -0.005258076 0.01289233 0.754162 -0.230418 0.614916
0.002877019 -0.002517286 0.01371053 0.740928 -0.258721 0.619712
0.000224304 -0.009057255 0.01440982 0.706779 -0.216866 0.673364
0.0005765387 -0.005891578 0.0150317 0.6783 -0.208556 0.704556
0.003334595 0.001617195 0.01483061 0.693136 -0.250964 0.675684
0.004033141 0.004457331 0.01521283 0.675682 -0.266047 0.687476
0.005035041 0.007266881 0.01529051 0.681715 -0.279283 0.676154
0.008052129 0.01164808 0.01398234 0.727676 -0.306118 0.613775
0.008972961 0.01466446 0.01441555 0.676882 -0.327052 0.659439
0.0059917 0.009962097 0.015403 0.670407 -0.274964 0.689142
0.01013124 0.01857549 0.01508565 0.651656 -0.323571 0.686
0.01477508 0.02350347 0.01290734 0.714507 -0.391245 0.579975
0.01179983 0.02068261 0.0145061 0.671002 -0.340442 0.658657
0.01323129 0.02445451 0.0151042 0.639438 -0.361733 0.678411
0.01649762 0.02871482 0.01424778 0.644059 -0.367887 0.670662
0.01775191 0.0312066 0.01438404 0.639171 -0.355204 0.682114
0.02100788 0.03544446 0.01362778 0.644007 -0.375043 0.666671
0.023221 0.03839686 0.01327153 0.632226 -0.402524 0.661979
0.02981468 0.04527917 0.01103307 0.666978 -0.442896 0.599082
0.02762309 0.0444882 0.01271526 0.628325 -0.405688 0.663791
0.03075818 0.04911563 0.01257864 0.609794 -0.374536 0.698474
0.03750128 0.05440065 0.00941157 0.635697 -0.437568 0.635928
0.03451748 0.05334625 0.01153691 0.597943 -0.365121 0.713529
0.03255419 0.0511956 0.01210048 0.612899 -0.366557 0.699972
0.03676105 0.0574963 0.0115121 0.517982 -0.133202 0.843542
0.03442211 0.05601826 0.01257835 0.454514 -0.109287 0.883911
0.03808629 0.06163614 0.0106991 0.423656 0.119417 0.89791
0.03524962 0.06038952 0.01208911 0.383918 0.0562126 0.921575
0.03472757 0.06330396 0.01193623 0.338119 0.157818 0.927707
0.03565021 0.06670792 0.01092428 0.35214 0.20117 0.914033
0.03316611 0.06598668 0.01199841 0.309101 0.200805 0.929543
0.03173093 0.0685423 0.01181003 0.273561 0.271703 0.922662
0.0325512 0.07150783 0.01046826 0.243082 0.386531 0.889648
0.02961331 0.07112418 0.01131738 0.187662 0.397043 0.898381
0.02536756 0.07121335 0.01171067 -0.00913054 0.595064 0.803584
0.02655479 0.07341219 0.009217059 -0.211533 0.86179 0.461005
0.02301176 0.07263696 0.008897114 -0.273463 0.875737 0.397838
0.01860335 0.07139136 0.007877967 -0.394433 0.871925 0.290046
0.01601315 0.06991857 0.008362578 -0.443211 0.844135 0.301567
0.01304548 0.06812136 0.008598087 -0.499246 0.800058 0.332603
0.00857333 0.06575151 0.007090639 -0.559251 0.783061 0.271991
0.006859449 0.06385913 0.008721641 -0.5527 0.77308 0.311105
0.01069856 0.0664484 0.00903219 -0.542312 0.765138 0.347013
0.009010611 0.06462713 0.01037098 -0.536419 0.746596 0.393464
0.004419381 0.06201547 0.008181032 -0.620895 0.722381 0.304383
0.0006019518 0.05881098 0.00726294 -0.679387 0.682103 0.270494
-0.0009666944 0.05785509 0.005232421 -0.730963 0.67034 0.126897
-0.003240016 0.05561421 0.004519454 -0.755906 0.639801 0.138317
-0.004855255 0.05342436 0.005496561 -0.742729 0.642239 0.189204
-0.006802949 0.05121332 0.005499951 -0.727439 0.619023 0.295565
-0.00904856 0.04830178 0.005250341 -0.799392 0.57053 0.18814
-0.01076354 0.04592674 0.005074383 -0.809764 0.5494 0.205862
-0.01329282 0.04211435 0.004950839 -0.849811 0.488634 0.197549
-0.01504711 0.03950344 0.004198481 -0.859282 0.470545 0.200492
-0.01731497 0.03532352 0.004422521 -0.859796 0.466856 0.206857
-0.01873285 0.03267624 0.00397439 -0.882936 0.423883 0.201754
-0.02065686 0.0280437 0.005065574 -0.876833 0.406669 0.2563
-0.02184889 0.0253439 0.00511414 -0.893992 0.377702 0.240758
-0.02295129 0.02242684 0.00546592 -0.894385 0.362424 0.262139
-0.02514321 0.01816772 0.003120573 -0.924781 0.348487 0.152607
-0.02621743 0.01538583 0.002498586 -0.939093 0.326984 0.105447
-0.02724695 0.01216767 0.002972489 -0.941643 0.305736 0.140427
-0.02712597 0.01080183 0.005719929 -0.930807 0.274085 0.241637
-0.02820705 0.007688665 0.005084139 -0.936769 0.271625 0.22058
-0.02954898 0.00325945 0.004671243 -0.94193 0.256207 0.217041
-0.03128397 -0.003128748 0.003168293 -0.969885 0.22305 0.0978017
-0.03218187 -0.007181576 0.003282556 -0.96807 0.227167 0.105911
-0.03288449 -0.0108532 0.003652264 -0.97435 0.188228 0.122903
-0.0335073 -0.01339751 0.002302941 -0.98146 0.173369 0.081028
-0.0339584 -0.01588837 0.00127344 -0.989294 0.145012 0.00795421
-0.03454349 -0.02017689 0.001745726 -0.988085 0.133337 0.0764578
-0.03380926 -0.01676846 0.003888448 -0.961457 0.128747 0.242202
-0.03403493 -0.01960048 0.004476223 -0.969744 0.114593 0.215504
-0.0348081 -0.02441043 0.003127488 -0.979519 0.0778368 0.18568
-0.03512406 -0.02711712 0.002503062 -0.981426 0.0854719 0.17172
-0.03520789 -0.02981163 0.003199799 -0.979699 0.0780114 0.184589
-0.03526485 -0.0327955 0.003622887 -0.983495 0.0213017 0.179655
-0.03521643 -0.03553268 0.004129084 -0.984342 0.0290984 0.173515
-0.03526537 -0.03922596 0.003643717 -0.992265 -0.0254221 0.121302
-0.03539012 -0.04181835 0.001685395 -0.992298 -0.0367438 0.118249
-0.03514268 -0.04539608 0.002078103 -0.98461 -0.0858294 0.151998
-0.03500121 -0.04832124 0.001171582 -0.986816 -0.111139 0.117103
-0.0345594 -0.05027816 0.00318685 -0.984493 -0.116837 0.128917
-0.0346638 -0.04766717 0.004327873 -0.970172 -0.10949 0.213932
-0.03498045 -0.04340074 0.004077717 -0.983241 -0.0545696 0.173737
-0.03451644 -0.04076075 0.006293108 -0.943935 -0.0794452 0.32022
-0.03468795 -0.03740175 0.006124241 -0.944469 -0.000635756 0.328507
-0.03453828 -0.0341927 0.006441456 -0.945388 0.00337745 0.32589
-0.03472501 -0.03104305 0.005637325 -0.957983 0.0556999 0.280894
-0.03459129 -0.02703452 0.005266335 -0.958438 0.0594941 0.278169
-0.03413891 -0.02382956 0.005912092 -0.954356 0.0549531 0.293409
-0.03363042 -0.0211928 0.006693871 -0.937874 0.11066 0.328799
-0.03323791 -0.01771006 0.00658238 -0.936274 0.131013 0.325911
-0.03266421 -0.01322129 0.006414609 -0.945059 0.165987 0.281576
-0.03219183 -0.01006484 0.006183516 -0.957032 0.173157 0.232554
-0.03136278 -0.005036043 0.005534704 -0.954052 0.196232 0.226167
-0.03051018 -0.001875048 0.00603023 -0.940112 0.226912 0.254352
-0.0296849 0.0009477129 0.006401527 -0.926802 0.275558 0.254959
-0.02836701 0.005446367 0.006803608 -0.923501 0.257764 0.28385
-0.02849622 0.002841166 0.008412802 -0.894199 0.240964 0.377108
-0.02878155 0.0002511765 0.009277446 -0.891021 0.207507 0.403691
-0.02969867 -0.002526865 0.008720156 -0.88814 0.211611 0.407889
-0.03062277 -0.00571935 0.008283179 -0.904371 0.188721 0.3827
-0.03110098 -0.008918664 0.008684007 -0.899535 0.180952 0.397546
-0.03142086 -0.01234961 0.009269873 -0.895458 0.138567 0.422957
-0.0320842 -0.01617226 0.008894492 -0.900884 0.127997 0.414746
-0.03228735 -0.01886927 0.009252056 -0.897204 0.111708 0.427145
-0.03244053 -0.02170626 0.009667709 -0.888138 0.0945559 0.449698
-0.03365988 -0.02601084 0.007716183 -0.931203 0.0643389 0.358735
-0.03306665 -0.02899411 0.009428291 -0.888843 0.0429833 0.456162
-0.03366615 -0.03248737 0.008540202 -0.912959 0.0419654 0.405814
-0.03336546 -0.03714142 0.009388532 -0.894288 -0.00641733 0.447399
-0.03351668 -0.0413209 0.008791269 -0.908834 -0.0494592 0.41412
-0.03389378 -0.04450928 0.007415212 -0.928879 -0.0559538 0.366094
-0.03372027 -0.04878093 0.006906544 -0.929577 -0.10401 0.353583
-0.03360864 -0.05143117 0.006185775 -0.935824 -0.157477 0.315091
-0.03348144 -0.0550181 0.004614452 -0.953605 -0.151691 0.260032
-0.03293587 -0.05799513 0.004976177 -0.950383 -0.139353 0.278102
-0.03215029 -0.06055601 0.006123577 -0.924435 -0.158341 0.346838
-0.03153001 -0.06449969 0.005691906 -0.904998 -0.200089 0.375397
-0.03051863 -0.06733862 0.006430268 -0.891316 -0.229547 0.390908
-0.02970094 -0.07121666 0.005928869 -0.857056 -0.261462 0.443503
-0.02904394 -0.06914244 0.008313523 -0.82626 -0.260512 0.499309
-0.02765005 -0.07451087 0.007353934 -0.7937 -0.328171 0.512112
-0.02692255 -0.07758909 0.006316712 -0.791821 -0.38845 0.471292
-0.02674384 -0.08028075 0.004146781 -0.841952 -0.40383 0.357699
-0.02514493 -0.08108047 0.006234903 -0.740396 -0.422216 0.52294
-0.02287724 -0.08695179 0.004476001 -0.733129 -0.45234 0.50748
-0.02311903 -0.08428361 0.006222239 -0.649926 -0.412352 0.637929
-0.02054802 -0.08912966 0.005357549 -0.569057 -0.389872 0.723904
-0.01939965 -0.09179694 0.004825175 -0.541165 -0.41275 0.732507
-0.01670204 -0.09510364 0.004336329 -0.353348 -0.510999 0.783549
-0.01495613 -0.09789321 0.003110662 -0.258877 -0.605572 0.752457
-0.01194603 -0.09768361 0.003898 -0.107493 -0.573884 0.811848
-0.01130293 -0.0949693 0.005631692 -0.0387857 -0.48121 0.875679
-0.01294144 -0.09299845 0.006570338 -0.104507 -0.475792 0.873311
-0.01634523 -0.09228238 0.006105709 -0.311465 -0.434081 0.845307
-0.01794022 -0.0894905 0.006706523 -0.383464 -0.333235 0.861323
-0.02063577 -0.0866296 0.006761687 -0.462964 -0.427368 0.775474
-0.020763 -0.08407329 0.007907893 -0.406537 -0.370853 0.834842
-0.02318023 -0.0804704 0.00845908 -0.462609 -0.374332 0.803413
-0.02473504 -0.07801767 0.008611666 -0.551884 -0.353814 0.755033
-0.02463381 -0.07438844 0.0101823 -0.418025 -0.294064 0.859488
-0.02707181 -0.07238027 0.009198386 -0.66337 -0.288432 0.69045
-0.02533162 -0.07089273 0.01085739 -0.411622 -0.221587 0.883916
-0.02651069 -0.06775923 0.01104629 -0.430662 -0.187901 0.882725
-0.02931106 -0.06474629 0.009753576 -0.750377 -0.262337 0.606137
-0.03081226 -0.06289947 0.008192434 -0.870904 -0.222717 0.437597
-0.03085121 -0.05936325 0.009462598 -0.863563 -0.151392 0.480949
-0.03208168 -0.05685584 0.007775793 -0.907986 -0.136608 0.396102
-0.03267454 -0.05419358 0.00741868 -0.918382 -0.170616 0.356888
-0.0319866 -0.05118193 0.01002173 -0.867655 -0.111207 0.484389
-0.03252829 -0.04799299 0.00975698 -0.886725 -0.10547 0.449975
-0.03267789 -0.04411219 0.01013314 -0.883184 -0.0668199 0.464201
-0.03223688 -0.04013674 0.01124925 -0.840643 -0.0634787 0.537827
-0.03164341 -0.0361345 0.01240185 -0.823005 -0.00982088 0.567887
-0.03244537 -0.03376245 0.01106464 -0.872216 0.0259569 0.488374
-0.03177992 -0.02977843 0.01177356 -0.849652 0.0401987 0.525788
-0.03250367 -0.02580983 0.01020332 -0.883213 0.0477326 0.466522
-0.03088219 -0.02520502 0.01286601 -0.82844 0.0545333 0.55741
-0.03092709 -0.02210867 0.0123602 -0.836752 0.072938 0.542686
-0.0308604 -0.01815085 0.01180352 -0.862108 0.0940192 0.497892
-0.03040139 -0.01449076 0.01176156 -0.852077 0.122752 0.508802
-0.02921465 -0.01067566 0.01267255 -0.800353 0.14997 0.580347
-0.02871 -0.006241448 0.01204014 -0.810015 0.198597 0.551743
-0.02739589 -0.003494803 0.01298401 -0.771392 0.179595 0.610468
-0.02698922 6.315674e-05 0.01232625 -0.804615 0.20898 0.555799
-0.02663382 0.003013076 0.01166717 -0.804122 0.223753 0.550725
-0.02659427 0.007273674 0.009716505 -0.849418 0.256641 0.460938
-0.0260738 0.01036923 0.008911733 -0.860476 0.278193 0.426636
-0.02614302 0.01343724 0.006173457 -0.920798 0.304309 0.24394
-0.02542643 0.01612771 0.005366115 -0.924034 0.318859 0.210767
-0.02347805 0.01980239 0.0070582 -0.885435 0.354201 0.300842
-0.02151859 0.02403953 0.00777822 -0.868535 0.364423 0.335603
-0.02207058 0.02154811 0.008818764 -0.847565 0.339082 0.408175
-0.01966806 0.02729922 0.00871563 -0.824962 0.402089 0.397103
-0.01893282 0.03082371 0.006365069 -0.86685 0.412767 0.279617
-0.01672983 0.034461 0.007578261 -0.857601 0.406622 0.314751
-0.01510933 0.03750597 0.007529218 -0.826301 0.459698 0.32516
-0.01353144 0.03878397 0.009477712 -0.817464 0.449201 0.36003
-0.01205062 0.041906 0.008692396 -0.784719 0.503695 0.361224
-0.01035601 0.04508929 0.007816798 -0.779399 0.531215 0.33214
-0.007478175 0.04930367 0.007645289 -0.765887 0.569173 0.299034
-0.008503268 0.04664323 0.009613151 -0.746807 0.534876 0.395148
-0.005813953 0.05027399 0.009669278 -0.752135 0.542586 0.37401
-0.003249918 0.0546104 0.007411406 -0.720586 0.632154 0.284731
-0.003822017 0.05265235 0.009817699 -0.690484 0.609045 0.390187
-0.001579566 0.05498225 0.01028708 -0.674596 0.609614 0.416203
8.141209e-05 0.05717327 0.009554184 -0.680543 0.641981 0.353148
0.002873416 0.05993749 0.009564022 -0.642505 0.68069 0.351696
0.005730289 0.0612694 0.01167669 -0.624494 0.635971 0.453128
0.002965622 0.05778922 0.01298637 -0.563706 0.649481 0.510224
0.005964865 0.05940524 0.01425966 -0.517888 0.620078 0.589151
0.008382388 0.06186445 0.01379645 -0.528024 0.64503 0.552333
0.01011107 0.06392851 0.01284573 -0.480727 0.715403 0.507043
0.01281429 0.06683533 0.01105028 -0.490544 0.76321 0.420551
0.01525507 0.06810513 0.0113647 -0.446586 0.776235 0.444913
0.01866526 0.07035063 0.0104098 -0.367629 0.804798 0.465923
0.01776344 0.06863654 0.01233188 -0.30301 0.72933 0.613169
0.02222738 0.07085557 0.01153055 -0.206739 0.756686 0.619981
0.0208151 0.06867953 0.01319388 -0.108429 0.564952 0.817775
0.0250966 0.06879435 0.0130554 0.133767 0.3544 0.925441
0.02768981 0.06748442 0.0131053 0.164479 0.304271 0.93803
0.03035145 0.06585196 0.0128863 0.255689 0.185092 0.948861
0.02753002 0.06428795 0.01396595 0.219717 0.194917 0.955869
0.03174767 0.06114424 0.0132918 0.317987 0.127789 0.939411
0.03317311 0.05858762 0.01302783 0.330356 0.0901104 0.939512
0.03026164 0.05714156 0.01415865 0.324751 0.0512756 0.944377
0.03225141 0.05384383 0.01344346 0.492851 -0.169716 0.852459
0.03015368 0.05193614 0.0142281 0.51392 -0.241347 0.822971
0.02803187 0.04957105 0.01484586 0.527842 -0.270578 0.804932
0.02875796 0.04726255 0.01327788 0.606476 -0.368196 0.704707
0.02521394 0.04186043 0.013436 0.621955 -0.393133 0.677177
0.02131232 0.03887923 0.01520416 0.57251 -0.357832 0.737687
0.01832827 0.03484906 0.01566798 0.589947 -0.337169 0.733654
0.01906727 0.03783941 0.01638783 0.535494 -0.306923 0.786692
0.02462293 0.04481693 0.01538825 0.535335 -0.318973 0.782064
0.02642256 0.04703589 0.0149866 0.555641 -0.306106 0.772975
0.02155079 0.04232701 0.01641374 0.482773 -0.272913 0.832126
0.01915728 0.04117338 0.01742989 0.433059 -0.23298 0.870705
0.01628001 0.03322396 0.01651946 0.555203 -0.296995 0.776847
0.01475139 0.02975724 0.01628668 0.577361 -0.314775 0.753308
0.01438824 0.02701162 0.01532617 0.618428 -0.335453 0.710615
0.01242767 0.02811688 0.01730636 0.53011 -0.27889 0.800688
0.01030329 0.02325813 0.01695834 0.553826 -0.298602 0.777236
0.007991295 0.01796506 0.01668384 0.602103 -0.270523 0.751159
0.006839899 0.01499063 0.01649085 0.592836 -0.273422 0.757471
0.004795035 0.01283212 0.01735175 0.57414 -0.23166 0.785241
0.002757582 0.006617799 0.01701815 0.579091 -0.231832 0.781567
0.002017101 0.003270628 0.01659993 0.612919 -0.229091 0.756164
0.0004036762 -0.001935158 0.01633721 0.595963 -0.221386 0.77189
-0.001929608 -0.01182074 0.01568303 0.625354 -0.179861 0.759314
-0.002679306 -0.01856478 0.01476377 0.657315 -0.153706 0.737758
-0.003204845 -0.02427366 0.01402606 0.669604 -0.151764 0.727038
