0.09211040092070942 -0.047926413772252444 0.18306357786303964 -0.005795959103519189 0.008031041218016828 0.9999509534147287 1.2738084978662736
0.09498468092895386 -0.04874510985575165 0.18596693841006368 -0.004077564852007914 0.005455537919032354 0.9999768050164421 1.2961187424997662
0.09142639488746483 -0.04758623639751196 0.18804254115444424 -0.002584386352119539 0.003512562067950952 0.999990491382244 1.271483165443845
0.08326807926009902 -0.04447229257386475 0.18890907619536493 -0.0017780971145145122 0.002682654061341115 0.9999948208555074 1.1585259672443373
0.07729798670859103 -0.04184618793871362 0.18772624895506906 -0.006044885494977406 0.009931010847148689 0.9999324149075809 1.10776524117873
0.07268370238907308 -0.03928922934788995 0.19030981936100372 -0.006564103277640427 0.011125206092588581 0.9999165676883036 1.0714671567102223
0.07768167117268268 -0.04169587970995931 0.19251036499043636 0.00411015630655035 -0.006044577929028986 0.9999732844895386 1.1335212908056072
0.08480286167373781 -0.044117392117912387 0.1907407005407074 0.03341696797263503 -0.05011323719165858 0.9981843365379404 1.164456145815516
0.09023482763669795 -0.048317550809044194 0.19368982322047507 -0.03510366194360956 0.04534685768387954 0.9983543436157056 1.2521344114665929
0.09573307602036951 -0.050099860215988105 0.19462385904399204 -0.038930320561518066 0.049882496325091355 0.9979960754939645 1.3047523061672992
0.09979079233791548 -0.05048099891866657 0.1906917909887355 -0.018968517543178732 0.024260341434270402 0.999525703109083 1.3215576362830972
0.1045986463945758 -0.05022851069237743 0.19133872674284033 0.025401581575176097 -0.03100839448250034 0.9991962965929654 1.351497918445318
0.11193120593297616 -0.05275067576494457 0.19285530961971467 -0.012866378423774645 0.01542649929544191 0.9997982193551576 1.3732946121920087
0.11682702126475245 -0.053947380177445436 0.19502108761915948 -0.02827655821469246 0.03302412778598961 0.9990544746106218 1.4061126691287222
0.10950389078702034 -0.052445754956372784 0.19588244452495154 -0.023885138882423156 0.02857942232742195 0.9993061176436369 1.3881640855311215
0.10615527708982817 -0.051548647249381276 0.19852947210384617 -0.01929805898395819 0.023256242167815425 0.9995432617549296 1.3835474268790484
0.10164388440652346 -0.05073825471245745 0.19793379137737116 -0.02058178954753561 0.025487452850050468 0.999463245790578 1.3596437599401106
0.09706556915339978 -0.04933994308095069 0.197328971470055 -0.011458160531685 0.014478604669075808 0.9998295257512985 1.3296514710456129
0.08923837090578655 -0.0469910177908288 0.19635036769912473 -0.0103787146188488 0.014483345851481314 0.9998412448863104 1.238537624427882
0.08325940033676534 -0.044946702653449334 0.1974438877714462 -0.016345220026454582 0.024466349283615834 0.9995670220325493 1.1851404604940046
0.07809013892722906 -0.04227607527170425 0.19888495752392377 -0.010073840102794877 0.015927934869971343 0.9998223935461544 1.1161402306867767
0.07231877699036453 -0.0390384993307685 0.19488680155675192 -0.007056930586970956 0.011982166351320477 0.9999033090355386 1.051115749369007
0.06470964078535175 -0.03504083191728372 0.19205376853093903 -0.018682850260255637 0.030487871932436638 0.9993605159156451 1.0902351419594625
0.06655198042181083 -0.03560717534546042 0.19367447141733848 -0.005324634853823029 0.008701001706619456 0.9999479690628782 1.052084949782751
0.05873698500997313 -0.031606289519554076 0.1914799325456913 -0.02039358872519068 0.03617281915703905 0.9991374423437148 1.0314991832234248
0.059990608640963936 -0.032877115962199166 0.194988562933338 -0.033779511542969 0.060258886082757444 0.9976110520879287 1.025787868435989
0.057323949380117124 -0.030823509369933177 0.19667514033194303 -0.02658804778929998 0.04737339485875954 0.9985233283075112 1.0250769830236282
0.060221722597768645 -0.03146431646666747 0.1977897898105242 0.001302529909827114 -0.0023726361891616534 0.999996336999965 1.0211353209229341
0.0633026036331093 -0.03418659073848479 0.197329906705781 -0.021306248780481554 0.03699504542026893 0.9990882895806839 1.0390235609296665
0.07182901557045396 -0.038676818300104644 0.1984968888815905 -0.005692615002151875 0.009850691099438178 0.9999352769151115 1.0403218891012027
0.06982186918226592 -0.03749406302059186 0.20046199490482125 -0.006492557410205864 0.011259399969551323 0.9999155327379411 1.0404974767783712
0.06518521464436827 -0.034878061029968446 0.20190468035016385 -0.012142004628487642 0.0212151463404061 0.9997012000039597 1.039934228548763
0.05701863528755704 -0.029786692681201453 0.20020784681040293 -0.007871084786643258 0.014026737293290147 0.999870639965584 1.0203348604136822
0.04941507506470702 -0.02540735197593522 0.19698379119616446 -0.02534046629260983 0.04985752571546921 0.998434819053104 0.9571662386425848
0.044366059198703046 -0.02155569514229737 0.1951693637394337 -0.026977231012867666 0.059655195375260844 0.9978544416254396 0.8572594002889856
0.03988017433271119 -0.013345907063270145 0.19179756540552192 0.024190987036059375 -0.13306399887744866 0.9908121761206631 0.5528300577036344
0.038872929259598135 -0.005947889600622926 0.18646543779809968 0.05086675044953337 -0.5200773967770187 0.8526031169661207 0.31561366821388936
0.039205370199985164 0.001228092508373686 0.18692884314743272 -0.019762734872298 -0.9981276147530921 0.057885222446405496 0.26871185563723327
0.04216913441886314 0.009589964790069015 0.18360516589080927 -0.09981780643433616 -0.8312559317935224 -0.5468546254506039 0.37794264165261604
0.04357663857630478 0.013509851117692855 0.18589583957385256 -0.11882245509333636 -0.7925053604477202 -0.5981776306643548 0.46908207618602793
0.04706463226004925 0.01976372708902704 0.18370711790229088 -0.142760149961817 -0.6686704386424261 -0.7297255539369751 0.562248801675201
0.04918347400576451 0.023900077129451455 0.18216627266770127 -0.14073455593939876 -0.5832313997328117 -0.8000218241587198 0.5865242272739057
0.05134756968832335 0.028016403575579864 0.18267134090752307 -0.14788763817636905 -0.5427154701333023 -0.8267945119269986 0.6366410221663649
0.0551278343587059 0.03399782745350439 0.18097329412573843 -0.13531646543711115 -0.41058691386092283 -0.90172492498975 0.710759537244047
0.053743316311370096 0.033979082614911685 0.18657045383610044 -0.1578531670816505 -0.44788967440483274 -0.8800438723176393 0.7620588058353301
0.06020230728826473 0.041387084273790384 0.18467914092325685 -0.10444313099909636 -0.21085310064214058 -0.9719221174233565 1.0190100780820894
0.06926797896680817 0.047336381378479744 0.18564852939760684 -0.040943424839406786 -0.06569682365529826 -0.9969992795002535 1.3305532418652162
0.07807045776102474 0.04961730395162783 0.18486468687247187 0.007275962285515202 -0.001130349704078983 -0.9999728909737334 1.578854108161764
0.08382015065876611 0.04923221106790526 0.18123949677984935 0.010828220539367168 0.007289070678738818 -0.9999148059152796 1.6995836774122166
0.085985439614147 0.04880106616438837 0.18471437638870236 0.010065043062903893 0.008085593784434677 -0.9999166555675002 1.721130048399957
0.09449433296419933 0.04697482748655621 0.1830098714617956 0.0024782249193841693 0.0019723054899294457 -0.9999949841935727 1.7797122284778781
0.09944752426761465 0.04590434237840425 0.18447373490366104 0.007124632030213718 0.005409030489904419 -0.9999599902034046 1.8253356707359563
0.10531994162848232 0.04357409881677533 0.18168592950528362 -0.009199735983912976 -0.007154222955041128 -0.9999320886698936 1.824786500582825
0.10402500147362011 0.04422755690220459 0.18597773612003973 -0.0003864112436048558 -0.00034085655280588847 -0.9999998672515719 1.8413764106340076
0.09977844560431 0.045237452017128185 0.18782858735478541 -0.009304934336465136 -0.0071166088040766125 -0.9999313836839625 1.8380790792682264
0.09346663737362726 0.04711131613192072 0.18597531976141027 0.00027972771131365643 0.0003309172821203466 -0.9999999061230758 1.7973151594503678
0.08983314217170035 0.048470037441942386 0.1893051075939995 0.015601979202513924 0.012895508837442615 -0.999795121060704 1.7741127256535338
0.09352327270070185 0.04819889223777253 0.19127003809548743 0.02696019838297775 0.02127856390888464 -0.9994100111671517 1.802996184884708
0.08962324443139161 0.04920495812219478 0.19422342796919137 0.03167392985802412 0.02626520316172759 -0.9991530920085381 1.7605997512761071
0.08317648070148335 0.04936190571131188 0.18935146204941178 0.01712748720421663 0.014755164879157193 -0.9997444344888639 1.7049468974601796
0.0839842805386558 0.04938717115125697 0.19248350696125663 0.020604988659070553 0.01802399708657513 -0.999625214753701 1.7010749671593353
0.07624589809252579 0.04989068873141801 0.1921376571669172 0.01538680732737957 0.014296173199104072 -0.9997794084657532 1.6345387462794505
0.07967285780408903 0.04976532362289887 0.19508223133654876 0.02353741922495369 0.021174033291315873 -0.9994986994540848 1.669390850497849
0.07578284954127952 0.04992421794202695 0.19656899334413758 0.023171549576028506 0.021591034866917224 -0.9994983274141188 1.6400335306603508
0.06864243638476483 0.04835063296557239 0.1927578096178956 -0.02451871050610253 -0.03277385568993331 -0.9991620024892527 1.430862975637025
0.06382647083942224 0.04705325437511977 0.19462192556203267 -0.042220347951071414 -0.05602044123264662 -0.997536541878537 1.3342178734205614
0.06031480308791366 0.04658816894301983 0.199113992972942 -0.03874180458402204 -0.05292859614945559 -0.9978464993611099 1.2754084688747442
0.06784519607531221 0.04936952173373755 0.2010235654478832 0.008462390150344851 0.004808241344978995 -0.999952633262252 1.5174465605770997
0.07437771637231867 0.04967443947945579 0.20088989582828126 0.018186664164200308 0.01639877537551428 -0.9997001177416966 1.5956949426605427
0.07975837705911638 0.04936980237775621 0.1997957334225863 0.016993293537548675 0.015111852912317243 -0.9997413965002666 1.6671687127621635
0.08594224484512664 0.04859299845872361 0.1978878044860858 0.002974032870854654 0.002678693536378119 -0.9999919898326293 1.7000493869722961
0.09211875167131077 0.04672969037599706 0.19506591337081855 -0.023137909957448518 -0.01830502405282985 -0.9995646868598482 1.7730286449129617
0.10163531244471491 0.044967180149853715 0.19118500799123753 -0.004203376038980532 -0.0034340002717270033 -0.999985269527511 1.8254752097950762
0.10891014420462133 0.04275626403462701 0.18753449903960526 0.002971292385136141 0.0019838354316887154 -0.9999936178889054 1.887278966863985
0.11640682170261081 0.03993188189708645 0.1841604174213425 0.010894182335034553 0.006983569749369597 -0.9999162697670274 1.9738328046413847
0.12248451572091004 0.0363909567171525 0.1830048514845127 -0.007755482841727733 -0.004798152850005213 -0.9999584142428721 2.008971164525577
0.1271141717730641 0.033945176705310436 0.18282113985989784 -0.00523048814823001 -0.0031806875446264422 -0.9999812624346891 2.046147274943771
0.13120494310580205 0.03153023583575465 0.18049659935251244 -0.009423177214271345 -0.005466167301819623 -0.9999406606125271 2.0845204550090384
0.1357082174692676 0.029508338100623928 0.1779209944556838 -0.008176890671874494 -0.004477354152745496 0.9999565449351941 4.170560294062716
0.13867631105075115 0.027134544047953287 0.17605608800789913 0.0065566358030052395 0.0037764312980150044 0.999971374137079 4.173480443208342
0.14063892888574514 0.025893332955708444 0.17898891038880269 0.0016556088719548868 0.0009558822727829217 0.9999981726225022 4.171039555423961
0.14506959812174672 0.023509902282070998 0.17949740897254313 -0.006884656209939354 -0.0036348586586887207 0.9999696941964802 4.136100235293095
0.14655650236383033 0.02251662459011144 0.1834033975844979 -0.013241309652232743 -0.0069315471837048045 0.9998883044482186 4.113106137311463
0.1520999087758106 0.01728666105145877 0.18165305185210706 0.008741160115471925 0.002406156723952149 0.9999589004202398 3.8946583447326706
0.15614979532149253 0.010520772713853993 0.183099997004706 0.03802888632901463 0.00889239452371956 0.9992370735337082 3.683881847006112
0.15733705410958998 0.00868352279294428 0.18657463258419607 0.04303096974358011 0.01087322048262369 0.9990145688223289 3.6572986059440464
0.1533077097167588 0.016078113592142153 0.18743367944257133 0.007776047842956638 0.0009800135259914581 0.9999692858550372 3.8880683310325446
0.14436167694476776 0.023701988470363106 0.18434113490729392 -0.0022034919332034903 -0.002296169490458363 0.9999949361016642 4.075385899058149
0.13946914577237077 0.026847386705212486 0.18345483303909182 -0.0056190940268883525 -0.003398030764621169 0.999978439352189 4.133423636516716
0.13554170294229229 0.02919714651340453 0.1831396779692686 -0.000325736999872833 -0.0002432530624562445 0.9999999173616739 4.162024277985167
0.13285814376024466 0.03104955453608425 0.18662327095810335 0.0039880408395689924 0.002400549786639644 -0.9999891663868082 2.078280764532898
0.12917990420973235 0.03279485797238332 0.18707085204883578 -0.008952933221382386 -0.0053112280694775915 -0.9999458164536353 2.071548629744246
0.12470194170381337 0.035098605706799874 0.18705649430656127 -0.013077260393050343 -0.007910992162494182 -0.9998831939099774 2.0554504058688052
0.12032437611893983 0.03758432691058829 0.18708256527676134 -0.005294893953500056 -0.0032378528230376296 -0.9999807400180852 2.032701449313366
0.11573386059039356 0.04014163449696057 0.18767278226994963 0.003059344515181655 0.0021909870651855936 -0.9999929199683454 1.975855064647101
0.11399889824730658 0.04219483395132609 0.1932796892377236 0.03173717659013396 0.02148195745507987 -0.9992653687214347 1.9609418289625618
0.10845379924102466 0.042573372540427895 0.19174245920732433 -0.011380570591082162 -0.008560308187650068 -0.999898596727065 1.9131881997306794
0.11687819117534222 0.03957034655481179 0.1922275085601724 0.0017526655383906969 0.0007713820682268673 -0.9999981665649269 1.9888159585614837
0.12026986137002499 0.038396947805981685 0.19391641330739592 0.007482977494145832 0.005000538352880888 -0.9999594990118367 1.9538748079465098
0.12476623907855079 0.03616663915669245 0.19275155044316544 0.014507468635018637 0.008838935030602721 -0.9998556928783918 2.0323285547420147
0.13039917677142304 0.03366303503090015 0.19275566459000965 0.027948496300418676 0.01666743634842454 -0.999470398821354 2.0589367416939446
0.13635203332052578 0.02911773098020764 0.19029133949645194 -0.009427866618287945 -0.005387050726771055 0.999941045769947 4.115456075339378
0.1397003050828698 0.02697991219577815 0.18897864555576432 -0.012170770184975763 -0.006667765630571046 0.9999037019906468 4.128196782426776
0.14395660376086172 0.024347884947026423 0.18843262331547264 -0.01126840578385162 -0.006103654141619325 0.9999178808468273 4.126031559689207
0.14742594991620975 0.02144120756358889 0.19165992143112437 -0.009391760004796194 -0.004820173925617577 0.9999442788312453 4.085063709595926
0.1433192794933374 0.02486254606110677 0.19460936433698003 -0.018208683695594165 -0.010711932427995107 0.999776824267162 4.181847103543672
0.1377006964092703 0.02844437149171284 0.1948456093172482 -0.01272083421842052 -0.007141738479724503 0.9998935823117752 4.14829000778402
0.13402407208943343 0.030028753358984 0.1953648069394801 0.0032779757772349477 0.00174272577380742 0.9999931088670969 4.1444119720834065
0.13894068258329703 0.02642715773363411 0.1952679684597437 0.01243557428662874 0.0070981729674537124 0.9998974809612663 4.173030839875688
0.13628325143087278 0.02812093850115701 0.1978019808642359 0.018062602137930234 0.009879552620502085 0.9997880459597551 4.14456604861195
0.13005261000910678 0.03199462839191911 0.19650743188819964 0.01909458247997398 0.010856063780175364 0.9997587422969184 4.175755091714595
0.12634472231605634 0.033977914978358774 0.19688507852061277 0.02212289091540169 0.012485993493338239 0.9996772867600972 4.169662157530514
0.12883789267913837 0.03210428052499612 0.199644974653865 0.04126118718085979 0.020304744553559906 0.9989420562680504 4.073649733908277
0.13353257224549675 0.030743159599710315 0.20139530024097668 -0.005896800342375111 -0.004075320209236502 0.9999743094254544 4.144146177309031
0.13994252442683588 0.02616313098024165 0.20094127056357064 0.003922782005266546 0.0017391492224895994 0.9999907935282809 4.112323890068506
0.1437040222232061 0.024008129214264512 0.19879095679151204 -0.007291231781006335 -0.0038209111377303304 0.9999661187146259 4.096961412173256
0.15064395471929948 0.019004777582152046 0.19668278216590135 -0.013307843889230949 -0.006310526651593682 0.9998915333896968 4.03917522078332
0.15390688456837687 0.015705868178424762 0.19312266957870983 0.0002849672892079807 -0.00016571931397137152 0.9999999456653751 3.946752786011195
0.15817049752957885 0.007669571516026278 0.1918150773035995 0.053422114977024905 0.010899649583139017 0.9985125313536863 3.670535667983776
0.15827304832945382 -0.0006313851362569041 0.18450923425962223 0.10883832169350513 0.0034952840933573 0.9940533198576664 3.305734325345756
0.15793145585965068 -0.006135471973340478 0.18597584761093464 0.14726011107276835 -0.0016905723175302762 0.9890963561008984 3.15771924454061
0.1560500125376582 -0.010799980965386941 0.18302533311350902 0.16273118387772917 -0.013466288165386205 0.9865785426801048 2.9966253825875824
0.15454216390158387 -0.015773564186543906 0.1839357732675935 0.1811060150629072 -0.02356557777802795 0.9831812014333989 2.896547006374346
0.15158923241207797 -0.023913761760411684 0.18154204187362827 0.16165812712987845 -0.030825238127399568 0.9863652744431188 2.7656913696431813
0.15195994731852086 -0.02301936216864621 0.183843190295818 0.18354787681034768 -0.034849682102318966 0.9823928321072893 2.771586322950538
0.15004600701635615 -0.02649279260159513 0.18455723478319816 0.19757367474416357 -0.044453296604562306 0.9792796063786249 2.7091979934882424
0.148159742334619 -0.030531593607957572 0.18566585955416384 0.2062547840666571 -0.05190195229262658 0.977120847898473 2.6606856284357883
0.14640353700340694 -0.03528283867143389 0.18715174251498612 0.1940540809352514 -0.0576840171322812 0.979293402326319 2.573357050741367
0.14757666307098502 -0.03877457648816203 0.19184232773352855 0.15520854924809985 -0.05303325958854777 0.9864571859020107 2.480004344386417
0.14341440453206525 -0.04392732731735834 0.19121115186652024 0.1251201162108544 -0.05868371647399768 0.9904045526653145 2.2461157594850762
0.13577759614190707 -0.05090134242032283 0.19505258923657431 0.06115379688617309 -0.0351667292789559 0.9975086537360092 1.8876023110683244
0.12647644842445627 -0.054114546876072374 0.19742212690974922 0.00029611354216066356 0.010378490017544869 0.9999460981781598 1.6121288147011694
0.12001314305897559 -0.05393664591468848 0.19970063038710628 -0.021691737504234785 0.027981954437035224 0.9993730428373236 1.4910871140597037
0.1152344603646484 -0.0532266113904237 0.20016766673394956 -0.023525852058489408 0.028298158355328163 0.9993226448543127 1.4377846746637306
0.11049273637797216 -0.052460526818670576 0.20083106998744446 -0.025770072114268263 0.030957266618684108 0.9991884462035804 1.4039331063315965
0.10638481823420995 -0.05141223385443147 0.20368158377246098 -0.0196002177870604 0.023422943881212806 0.9995334897654191 1.3998430066913972
0.09927256930445566 -0.04976862043504553 0.2019713075444755 -0.011342156733445276 0.013930752481707576 0.9998386317881138 1.3570632273481336
0.09248512173778119 -0.047925598394386815 0.19962317424096784 -0.007962760270375327 0.010381132031943126 0.9999144096104485 1.293863843131128
0.08772357303032151 -0.04623501729960152 0.2013734278384957 -0.004826711865836405 0.006609011635644628 0.9999665113481371 1.242953120891331
0.08270638250890075 -0.04433596594464097 0.20224245633056173 -0.007155594147166862 0.010732251241723053 0.9999168046671111 1.1817478555046692
0.07650010582137111 -0.0410968253358101 0.20242646771934591 -0.0005375584041081935 0.0005350568359510316 0.9999997123725309 1.1003463851640771
0.07253327114639156 -0.03887962498472653 0.20501393362229903 -0.0023727478185999592 0.004088877206905091 0.9999888255130535 1.0477252293033428
0.06657365479670532 -0.03548012168748027 0.2061720791697191 -0.0076268660640039145 0.013870013768416777 0.9998747189683843 1.0167663695298197
0.0630010532137655 -0.03341815357769641 0.2070157418240807 -0.013961252130198193 0.024955840633304843 0.9995910611131146 1.0216189818429104
0.058075166341728705 -0.030605157730603665 0.20627640761500565 -0.01942921632164749 0.03477995025205202 0.9992061151802422 1.0202362539588412
0.052702113281977624 -0.027224870941695224 0.20129449286837328 -0.017281332916049847 0.0321100636584862 0.9993349285122044 0.9873286862712428
0.048003754837064934 -0.02375287703977395 0.20219286806500453 -0.017401973374833374 0.03539594216939339 0.9992218465388969 0.9150364453514748
0.04421067506650875 -0.021106124860917418 0.19973973364039838 -0.025309383569682466 0.05635314526886591 0.9980900551160846 0.8552236905200942
0.0386852786769936 -0.012698900186224008 0.19682031635743477 0.015673158278081967 -0.08639013508804205 0.9961380911646036 0.5778519265419838
0.03923613931310953 -0.015018068095707444 0.20153656573845086 -0.008879343704235702 0.009291779219845649 0.999917406636324 0.7202891831867122
0.03978912265876035 -0.01563388332234235 0.2061355450000828 -0.01113372653203289 0.025225901551131694 0.9996197747265921 0.7315629024178747
0.04293726749905956 -0.018934186585102437 0.20683284816924954 -0.012588687897739514 0.02879899859328348 0.9995059492654544 0.790979850355726
0.048808430396460004 -0.02448563080976047 0.20573518388471668 -0.025294723507828742 0.05070048552932378 0.9983935284895197 0.9025504313519659
0.04786436452395944 -0.02323304519391435 0.2086178626673524 -0.01579182607942198 0.03232270060407043 0.9993527211424087 0.8993120164609061
0.05105402458341777 -0.025655560385927756 0.20901828508723186 -0.01579564984008464 0.03135262150347946 0.9993835652896182 0.9308612277806163
0.05551993527552847 -0.028848714231544906 0.21009100930131647 -0.01951850859300882 0.03755232069245491 0.9991040241300781 0.9566910092420012
0.05388874750588562 -0.027632149686509 0.21306000081105875 -0.01936471889641618 0.03674763588108928 0.9991369370207539 0.9700820099808123
0.05011208077240754 -0.02475282838696022 0.21273002169327948 -0.014914952004786463 0.029984670644131448 0.9994390745478473 0.9184884397842213
0.04669143029485178 -0.02189050064923948 0.21385591651400793 -0.012117314299580968 0.025330419562905108 0.9996056925302759 0.8890585775364033
0.04096019266492049 -0.016738052219194947 0.21163095904285376 -0.013229395445873765 0.03222587342710534 0.9993930538972126 0.7825488397748854
0.0354647751585056 -0.007102236719530082 0.20200484498807444 0.011198427064468516 -0.13921913468774846 0.9901982769971256 0.41137078681989236
0.03627603836465553 0.002492522135766249 0.19426881219818776 -0.040217746890024636 -0.9766364485459235 0.21110135055630355 0.20897480401359242
0.039613613728688234 0.010776107663336774 0.19079371519156824 -0.10482590288077998 -0.8360106324617379 -0.5386072339805272 0.35438156950250893
0.03771197357634216 0.011903726324017561 0.19525086992574459 -0.08917195658273135 -0.7266086061521948 -0.6812402627742814 0.3317349191914742
0.03858242433825767 0.016353983822756855 0.1962221010825782 -0.09260283756194224 -0.6055816755537008 -0.7903768396841148 0.37772984871870835
0.04222047803387941 0.021499261012813898 0.19319604272942653 -0.12005157109488011 -0.5587760675190089 -0.8205832844054545 0.5002288919333342
0.04651012201353436 0.022854138232715312 0.18787149373700324 -0.14585950713209175 -0.6223804255272183 -0.7690042978421786 0.5842277846059304
0.04980439780497548 0.02763002557482629 0.1870244481459004 -0.15791501727289153 -0.582641041218373 -0.7972404056541995 0.6513722346802829
0.05041420949512915 0.03331281381992085 0.191269865754531 -0.14292505242234466 -0.43723921002442345 -0.8879157069267827 0.7144539248467822
0.04670986863444826 0.031348602429467465 0.19482359073668093 -0.12172332509334695 -0.41078482074967165 -0.9035702867900647 0.6305900668737568
0.0435404367104278 0.027338303666653425 0.19606232415098443 -0.10899513347373548 -0.4173511151323565 -0.9021851847469127 0.5589568876408431
0.040505945685390315 0.024023188784250644 0.19852027382540519 -0.0906754347242331 -0.3791089294912798 -0.9208986834161222 0.5018808600361052
0.03963250574799903 0.02641467877375611 0.203010287324548 -0.05689384219845624 -0.24400165128623472 -0.9681044803581315 0.4667341010228331
0.042237902382444 0.030949173372985125 0.20211359298318352 -0.06049761635569919 -0.23062172002699524 -0.9711609859683764 0.5248855457473929
0.04732316591384663 0.036778499146633295 0.19938074385696275 -0.0791052467960761 -0.2125017703316142 -0.9739534678490865 0.7127648789753974
0.0448031664788345 0.0365100665292475 0.20522055451163815 -0.04579907391314841 -0.13268911443530482 -0.9900990070387267 0.6464911525062873
0.04054705205332426 0.03185745353039509 0.20939490169101652 -0.018360781279674474 -0.0566929652969116 -0.9982228155059586 0.5077481661211843
0.03686440078762958 0.023166593398512132 0.2052896550057833 -0.0261708520395775 -0.12048158459635765 -0.9923705327531008 0.42457831665159285
0.03504065700568501 0.02085607745813607 0.20943979397463242 -0.0027293526358033154 -0.010971654534607507 -0.9999360846728969 0.4102120940051104
0.03334647090090162 0.01223851840003442 0.2054040513372768 -0.02065366026289854 -0.269806858947997 -0.962692934004587 0.2247948596892001
0.03239278296825541 0.001515952732594343 0.20651936759388975 0.003546485816239461 -0.2337533090709117 0.9722894697242968 0.12923122395997066
0.032655688802557474 -0.0032186646903152724 0.2114811463656335 -0.017083044983962493 0.07085162522164305 0.9973405721104139 0.27602871884751057
0.03094247027932848 0.0028397613306994514 0.2155247163609691 -0.015113796660602778 0.5748189468714211 0.8181410339716083 0.1061501162929259
0.03157442051444057 0.01167844619177943 0.21302300381996167 0.013418496322574507 0.2419073594548078 -0.9702065622320041 0.15799589632066527
0.03357167859022406 0.018614432282389255 0.21511325517594926 0.019571001182785153 0.12862540336528383 -0.991500116753307 0.31224465415040986
0.0358158829913067 0.023523079461237172 0.21242579188746316 0.009164252109492925 0.05151452589497366 -0.9986301968722406 0.3887079660402897
0.03745023656453426 0.02728067589857815 0.2154995903445609 0.013298549421258068 0.06333992101272982 -0.9979034036365401 0.4193269169761839
0.041947548761083225 0.0366001661342975 0.21628573514811725 0.035407942846702685 0.10581439277295145 -0.9937552977798186 0.6073086566512584
0.046462218860868036 0.04110506357822101 0.21213526388549275 0.007267839545045157 0.022678780281927678 -0.9997163854980431 0.8098151225857103
0.053278733921691815 0.04508246216295023 0.20648487640979168 -0.014078732860976865 -0.018494624979678607 -0.9997298325687246 1.053962760702417
0.06421873595246155 0.04914830960511051 0.20585092170006997 0.009274248519078907 0.008366762042615867 -0.9999219897608654 1.433430313684364
0.07289593327909835 0.04932070806565951 0.2058240462002285 0.009259849951899945 0.008758183858481573 -0.9999187713981418 1.562094520856458
0.07760480214298467 0.04931788772465044 0.2035924895104221 0.014103018904526525 0.013271592927579078 -0.9998124672552064 1.6132690911772323
0.08183676396430864 0.048864222346289746 0.20175187488617488 0.007947747817609192 0.00756690990986916 -0.9999397857766454 1.6097299315214402
0.08996948887863467 0.04985847370674933 0.20353274557873732 0.056502318382803514 0.04086297540851335 -0.997565890183767 1.817971547986121
0.09772964072515003 0.046949289349262784 0.1967188090008419 0.019937996541167183 0.014498335880433784 -0.999696091095 1.8368039970672936
0.10128160709929661 0.045972359046573714 0.19817085695360104 0.018806609641959113 0.014102136107026332 -0.9997236824197943 1.8381908903024626
0.10428708818893455 0.044716830796617944 0.19809114636953404 0.006184124716199407 0.00465207817270083 -0.9999700569367914 1.7929950851920313
0.09394491456224313 0.04707847323405235 0.19958343375027407 0.001421698258800422 0.0010401782842905196 -0.9999984484003952 1.7126244064153184
0.09504077612780641 0.04723235216897228 0.2036919082831314 0.011704392774539923 0.009537520601291266 -0.9998860149489837 1.752476831390597
0.09907640053483618 0.04597145065940764 0.20210947817727384 0.0048260284141510065 0.003872055648253553 -0.9999808581341959 1.7949396021987654
0.10639790711481152 0.044122435904809576 0.20276816706497441 0.01133480847491299 0.008502195939603283 -0.9998996123516809 1.8438304457462726
0.11251714489385448 0.041352888257548036 0.197608625987151 -0.0031385842603589907 -0.001878208552277371 -0.9999933107883646 1.9329438461449502
0.11777440437707064 0.03851290285222088 0.1972210382618303 -0.02128331514023836 -0.013008050156635672 -0.9996888571589482 2.0154718579312476
0.12261315088227767 0.03796774056784703 0.20140454219529536 0.021733878215078314 0.012946042548500594 -0.9996799680498077 2.0481897993151787
0.11903013277718792 0.03934009446412357 0.20421827748285856 0.01081444245069804 0.006658600600073469 -0.9999193521842294 2.0112238154898976
0.11493830440341682 0.04062481113427932 0.20171535263042983 -0.0018568991949845417 -0.001479591870186665 -0.9999971813626662 1.9645708015654786
0.11079323642594933 0.04225630544779454 0.20614106707387486 -0.0016767244878936843 -0.0012355247748148117 -0.9999978310344091 1.9235633056600527
0.10581753162532274 0.042989561266036785 0.20462302230516513 -0.028856534784718498 -0.020999589610694015 -0.9993629559056113 1.8945264851218218
0.09750931747600927 0.045523519525962945 0.206093154337711 -0.02368007146077117 -0.0210237857804917 -0.9994985015731985 1.675603676715681
0.09069270818947202 0.04859959451620855 0.20715597457033733 0.028548990013450966 0.023851383957455324 -0.9993077937515178 1.7242463825120136
0.08556700620163217 0.04853074737160824 0.20578195592048998 0.004553975363641597 0.003521053725404586 -0.9999834316072693 1.688939650835874
0.07989044339469815 0.04888225709401388 0.20682964909850912 0.007380200665390103 0.006666597142139303 -0.9999505433373608 1.6563987492745766
0.0729270693812513 0.04901173436699842 0.20916304776063557 0.00021780830069078932 3.030811108014313e-05 -0.9999999758204811 1.6045746124371165
0.06609203034715577 0.049222542289348574 0.2102655244177585 0.005260768272581333 0.0057013029576699304 -0.9999699092781578 1.5201354057322671
0.06769612810771566 0.049060925230162616 0.21359090729041813 -0.0004161555644896101 -0.00031493691416090836 -0.9999998638146338 1.5564708336439086
0.0755003889160791 0.04886721673348664 0.21189341461253453 -0.0003022097396211699 -0.00027292841268189135 -0.9999999170896741 1.6035733386413038
0.08163763987472089 0.04835087485369593 0.21140782209444417 -0.005128169255667738 -0.004779680511490511 -0.9999754279652543 1.6317704941523314
0.08864968320027188 0.04772777244759383 0.21113146748310355 -0.0037846552892546567 -0.0033605198233703387 -0.999987191563401 1.6953532927391017
0.09459990516490523 0.04638343867846762 0.20822917736324717 -0.017972223056022068 -0.013807296302298773 -0.9997431458966073 1.7970153827963948
0.0995059364565023 0.04510989723958417 0.21004414360721643 -0.023729133245752366 -0.018230682049390646 -0.9995521849645566 1.8210276453604952
0.10523077399061156 0.04428522347080659 0.20996419479705633 0.003010979841214981 0.0018655507086441263 -0.9999937268407983 1.8651141046840511
0.11323175370019965 0.04120088389074946 0.21007297945648787 -0.008627265565649255 -0.005694986320903499 -0.9999465672823045 1.9466327581681215
0.11708125740838098 0.03888736411606854 0.20738152804386417 -0.02479342727433765 -0.01619341955196883 -0.9995614333932689 1.9757898017858853
0.12154139658815265 0.036769512501915014 0.20470238222239903 -0.024400969649021564 -0.015084857809739111 -0.999588435179723 2.0324646731286635
0.12927321767649688 0.03306957714901849 0.20461710624712062 -0.008385278403299917 -0.005163186131290357 -0.9999515131320481 2.0736403235428185
0.1342492055739419 0.02952360930518478 0.2049774089754186 0.01674707755803071 0.009445497689032818 0.9998151418970768 4.170716354127924
0.13853766889332328 0.027247051305511576 0.2052820428526462 -0.001166794128487717 -0.0005565332114764712 0.999999164430774 4.148554087756697
0.1439864650588921 0.023301807662960687 0.2025531706897838 0.0056380773728799795 0.0027465926565017063 0.9999803339627819 4.07506369620401
0.14846033537616216 0.020447568325445906 0.20005026784668745 -0.008307317570800252 -0.0036823800570917557 0.9999587134236556 4.009865704441185
0.15128961344526431 0.01795127006098144 0.2018120532702758 -0.0056885611735814886 -0.0025559200050420373 0.9999805535832695 4.000401530064088
0.1573253534697256 0.011502945353288958 0.197761826837627 0.012223855948701037 0.003775266036275569 0.9999181590070764 3.841426612298524
0.15997998116647574 0.008225548972166132 0.2019218515340906 0.010357031289184674 0.003105752192262028 0.9999415413943933 3.7540630423595096
0.1619093544935411 0.002022944519030046 0.1984012614584796 0.04739150570465648 0.007770722205917376 0.9988461648639615 3.5352134647268945
0.16095740789999763 -0.0053751676638340426 0.19289094544751148 0.11156054837189279 0.0009335344203705442 0.9937572000043312 3.2407060035896946
0.157281443749674 -0.011523654607169573 0.1874757298738568 0.17025822040170777 -0.015106482206733995 0.985283681272039 3.018009125518972
0.15741269900492397 -0.016306856009205842 0.18997558150312951 0.1628402208878745 -0.019352438219459048 0.9864626427777943 2.9230926603799863
0.15500061125291512 -0.020286554791096582 0.18838955748279496 0.180163292323531 -0.02817218778784343 0.9832331950938152 2.8440226336708427
0.15363219655629679 -0.026468943235615418 0.19017053949066914 0.16984678364370914 -0.03495431497357616 0.9848503774435055 2.7411677265430687
0.15769124114813812 -0.022221030945166607 0.19388310598512284 0.13870114032059622 -0.02346188867165157 0.9900563284246635 2.8167365282446295
0.15996055285260366 -0.015669885915006 0.1944156331709746 0.13239977182227813 -0.016015088385482927 0.9910670095232784 2.9075598525598902
0.1621784688459536 -0.015523781355292083 0.19907494595015426 0.09743392841295338 -0.010698854145299091 0.9951844874765668 2.929768657384884
0.16143582860357325 -0.02151277253301588 0.20066223650468232 0.07580262222427456 -0.011253408780299122 0.9970593378805233 2.839704491499629
0.15773007624886518 -0.028105975494209304 0.19788056537831553 0.09541200883872515 -0.02030051712387952 0.9952308463737758 2.7320162586499337
0.15313991838178498 -0.03451687731598119 0.19557796752560014 0.11480676079549 -0.0299047672175179 0.9929376176645305 2.644223708543512
0.14992913209649025 -0.04217229553679731 0.19869687049570167 0.07851014496015774 -0.02868109707524857 0.9965006531904007 2.392370163805286
0.15320034246828126 -0.03874932056654167 0.20114161592465862 0.0755031976819153 -0.023202881075460105 0.9968755656798917 2.533361733549801
0.15720926426541965 -0.033158308134970935 0.20237187824428643 0.05903540727371466 -0.01536494774492036 0.9981376353333354 2.641784175572638
0.16060902998913704 -0.030382638480072412 0.2070224448216228 0.005953504446189581 -0.002029686952479838 0.9999802178821761 2.684620723985747
0.15875933416068697 -0.03426500503277732 0.2083839658986487 0.006911308622221418 -0.002162966557546398 0.9999737773505859 2.68399126478749
0.15479989047175619 -0.04005087946225401 0.20666447696359672 0.02428162798741005 -0.008289429251995502 0.9996707897627886 2.5418608596351167
0.14828928204847275 -0.04782046027322919 0.2094965430138596 0.0014480257542269011 0.0010386807653392117 0.9999984121805808 2.2057550358046467
0.13977474184649286 -0.05122956923300784 0.2015962069496107 0.020859952595070876 -0.015097076510239773 0.9996684153550994 1.9468282114282573
0.13822850916548554 -0.052294843431031704 0.20603684436775402 0.008010966403753221 -0.005878233793229117 0.9999506341738826 1.8508629296087018
0.13060480632448343 -0.054096173250773594 0.20482763937513437 -0.013280777373482208 0.015007039681376542 0.9997991846927852 1.6189549389261984
0.12483251777656826 -0.05428367923711736 0.20280969007607222 -0.024826339774713425 0.027582479839447453 0.9993111926018327 1.5123851359004572
0.11854889001991854 -0.053619642443835186 0.20361582967428613 -0.027872460993785424 0.03167109400308173 0.9991096374886981 1.4592589125511994
0.12103383680925421 -0.05371447197786435 0.2059516556715847 -0.026151971373655658 0.029546329960704977 0.9992212411568946 1.453865425119644
0.11471840832968709 -0.05281370714415906 0.2068203636875285 -0.02637270163707621 0.030477944031036444 0.9991874576554705 1.4287797448961954
0.11001042732711766 -0.05195392965286946 0.206223764538312 -0.0213646526272188 0.025147597062241605 0.9994554267100226 1.4079206798889656
0.10179184523478355 -0.050330405328896224 0.20539949749423836 -0.015403254392987823 0.018644415188789162 0.9997075199959101 1.3770265181469183
0.0941084355151782 -0.04828938704399482 0.20368087440584923 -0.006621720271465543 0.008251411611043721 0.9999440319473242 1.3144931833119002
0.08909470496945897 -0.04663973326278311 0.2052222041389351 -0.0036031536900145112 0.0047565593006554585 0.9999821960550627 1.2589737228445579
0.08168803782789488 -0.04373513014246664 0.20590879620830937 -0.003148536189164321 0.004746473675346079 0.9999837787221925 1.15927689174417
0.07781167828102259 -0.041795547621039174 0.20862841277384137 -0.00101494933990702 0.0015473830525353917 0.9999982877402972 1.106196317833163
0.08286997096355637 -0.04426376544032625 0.2096479232462746 -0.004092916411152019 0.006139944006069409 0.9999727741908044 1.1565467710527795
0.08842051207680977 -0.046341968583085945 0.2097342815126243 -0.002242359408499351 0.0032143986542584433 0.9999923197032937 1.2223740552317897
0.09487946534091386 -0.048437385451849405 0.20759350962843753 -0.0065930428388504825 0.008579125282393393 0.9999414634844953 1.2905956824352462
0.10067325882095547 -0.049778564447089085 0.20932383968863189 -0.006981463543761958 0.008615890814434713 0.9999385109056761 1.3532099246906584
0.10613854053131351 -0.05085145299248038 0.21024075379776871 -0.010128804783729404 0.012074475026928306 0.9998757994703529 1.388077095848636
0.11165353128123073 -0.051783509917442676 0.21054995247662864 -0.011936692557763761 0.013990441442342742 0.9998308771582471 1.4087058877706709
0.12017514516350565 -0.05320623339707955 0.20987283438456603 -0.01817622796189324 0.02059997294402043 0.9996225616960548 1.4409421964333269
0.12593062451305193 -0.05387328396833933 0.2094308941651376 -0.01872774215210791 0.02025676512716992 0.9996193951402037 1.4899480134814158
0.12340395962974184 -0.053225167102820596 0.21334433695164437 -0.009410729593256173 0.010344716883295664 0.9999022077188985 1.4674740476106958
0.11907064863014251 -0.05286437287399274 0.21278004091729688 -0.013019399428359906 0.014819139824708833 0.9998054252370211 1.443301166098805
0.11181314516920053 -0.05160924628487338 0.21462229300650482 -0.008121315865118023 0.009384189266456582 0.9999229876447637 1.4245488042314811
0.10791657552527116 -0.05083074023023856 0.21641352816423312 -0.001434939605488821 0.0016511575783134252 0.9999976073106275 1.417592626729529
0.10040678382535338 -0.04959754791285147 0.21342399110550683 -0.004877382020362057 0.0060135033371445734 0.9999700240118409 1.3760012760471971
0.09500562193026886 -0.048304737188913836 0.21279175835184777 -0.002741576889953371 0.0034721121213079145 0.9999902140489045 1.3336632843993688
0.08955167862676883 -0.04669795390245812 0.2137980540779433 -0.0019636753156810323 0.002639058772448637 0.9999945896593893 1.276482234372186
0.08147073957595109 -0.043501142036657565 0.21279803459477384 0.0006764931884699701 -0.0011926839511292116 0.9999990599305376 1.1706432869381473
0.07573431391559482 -0.040567096831433884 0.21219866900740286 0.0010657380593849552 -0.001809124684418648 0.9999977956327029 1.0923332832909067
0.07145781749801176 -0.03841994971650695 0.21067917440048908 -0.006554727746350029 0.011749199096080565 0.999909491836522 1.0438488551231468
0.06702207172073942 -0.03559311391224494 0.21112169337616896 -0.007512244906313853 0.01354691204722709 0.9998800164772034 1.0201857017911533
0.06352610626105107 -0.03318974727844245 0.21096865226454853 -0.001427999636649188 0.002583816146727998 0.9999956423460843 1.0155328592457071
0.05905719539338905 -0.030593408470281632 0.2138748147543952 -0.008365795291736554 0.015317831829215887 0.9998476771474686 1.0037778394605728
0.06473755033468685 -0.03413338437381849 0.2153855279949043 -0.004546251968631776 0.008339412853490127 0.999954891875777 0.9943390202672607
0.0696219891301205 -0.036935882410841364 0.21455471507703078 0.0011786226824755256 -0.0021321910514028966 0.9999970323005426 1.0036834764196505
0.072506909110583 -0.03856489897911472 0.21705541923974148 0.006067046756038079 -0.010784099034495011 0.9999234441454377 1.0205032877570812
0.0771405636746953 -0.04126444293882992 0.2185228478251493 0.00500510219221015 -0.008375136021705719 0.9999524018915417 1.0813214590153835
0.08227451673866798 -0.04386412673446546 0.21596476033701545 -0.000431397449457802 0.00042478212771800415 0.9999998167281755 1.1471279361977818
0.08663373790765759 -0.04549930753560349 0.2179755266815002 0.004912961702544159 -0.006972711205669081 0.9999636213911742 1.2098078667365593
0.09468145528088859 -0.048052776922693295 0.21639558973842804 0.0022272981630577764 -0.0030574210202856636 0.9999928456342062 1.2952947645105346
0.10038046791615014 -0.049375736603076606 0.21730712129479746 0.0014895845492426563 -0.0019105217198959745 0.9999970655180086 1.3573174930883378
0.10086823254474249 -0.04927632678017343 0.2217235510185662 0.010829977074047195 -0.01327423060156275 0.9998532424303639 1.3670134135892602
0.09579917336062686 -0.04812046479431411 0.22170320523982764 0.011594805776572813 -0.014692697010789813 0.9998248272240257 1.335986347566725
0.090288353535679 -0.04648513617841342 0.221805323051964 0.01296876999487686 -0.017577192897374687 0.9997613981819206 1.2731382168566656
0.08412434013504874 -0.04436718474672309 0.2201322031244071 0.00945135869127887 -0.013600143115098608 0.999862844557261 1.2052169521201719
0.0807071725939042 -0.042754513565654455 0.2236099645948 0.01549373945730909 -0.024000588894929894 0.9995918746019925 1.152389191856086
0.07583739862675232 -0.04031453145454256 0.2221642914621122 0.015088035973806325 -0.02502932807397248 0.9995728507250577 1.0854986366570771
0.07129616505464813 -0.037664982710057214 0.2202993461005007 0.013743907222626035 -0.02414297198478934 0.9996140364750775 1.0331232146616502
0.06746205781265775 -0.03543878947447754 0.21936296289892734 0.008700647019467303 -0.015603434959368024 0.9998404030438613 1.0107865823595426
0.0637075290178109 -0.03318267256415915 0.2188946439563613 0.004742486663927736 -0.008487529339023903 0.9999527342159538 1.0148460646465365
0.05928724693270412 -0.030086857439260803 0.21884130584371295 0.00912579786571109 -0.01691395650547511 0.9998153018876262 0.9921979503259811
0.05561928678193262 -0.028151683378019432 0.21756548217912308 -0.00395877949208591 0.007564851629198006 0.999963549878075 0.9790631771587458
0.05107061482503087 -0.025211218951497364 0.2168231531026366 -0.008733063929404905 0.017521042083228102 0.9998083549754536 0.938537288731788
0.04707919607111417 -0.021880807861855575 0.2177463240022018 -0.0054739376385213425 0.011479074811830069 0.999919130154131 0.8854651470033519
0.04238818257632825 -0.018145986658062118 0.21545373308385277 -0.014742913229111932 0.03565276396562123 0.999255486315252 0.8031832034837739
0.03765476806081463 -0.013130706079338776 0.2173206275890266 -0.020602856982607363 0.06380059822681441 0.9977499716612648 0.6523818808636281
0.03997436944652588 -0.015570674431307179 0.2193433458348283 -0.016126429107742982 0.044377817993514895 0.9988846517763538 0.7147635513341583
0.04485681828628241 -0.019924186146598733 0.22186990517899724 -0.003908732867117524 0.01082199950175758 0.9999338008759167 0.807173063552268
0.04948780139008852 -0.02388362301421073 0.2207660731582935 -0.005965276444518351 0.0124458327175374 0.9999047538265371 0.9066125923957717
0.05205246188540031 -0.02566859419776002 0.22359709283596674 -0.00013544470192143344 0.00046024309225823853 0.9999998849155077 0.9294831476797853
0.05603103294179412 -0.02825369841003596 0.22261924488704884 0.004635784943509661 -0.008679283114292193 0.9999515885994579 0.9629222991026588
0.060038733135334976 -0.03069704679698588 0.22258355717514428 0.011078979470769315 -0.020728216710979876 0.9997237604687952 0.977171422558621
0.06528859456039601 -0.03364629390573054 0.22258169400909572 0.021983923490028895 -0.04075986342547904 0.9989270947579311 0.9878413073278863
0.06951616477237828 -0.03645344864638874 0.2235569784865024 0.021270688920448866 -0.038705927716391204 0.9990242284111346 1.0056856279314992
0.06680140320703398 -0.03460363328882722 0.22646509275406004 0.02939536777781571 -0.05376275099868127 0.9981209741099826 1.0023850208477005
0.06327485680184 -0.03224476072081991 0.22596141827547417 0.030571719670742865 -0.056392311383362134 0.9979405178532512 0.9951856525225894
0.06140253812420854 -0.03103223550966374 0.22905865567598158 0.035578255032330315 -0.06645665424630127 0.9971548028642503 0.9858401609640237
0.056373690636497116 -0.027757725470649933 0.22749330172827006 0.027099020280499736 -0.05180371933340318 0.998289546055183 0.9628574170710504
0.05196857514038268 -0.024838292832711512 0.22709803302229722 0.019838236195434417 -0.03926518350857016 0.9990318762425413 0.9309926171266736
0.047561338076667646 -0.02162381519560616 0.22561059567323677 0.012781579914926617 -0.026376058600304335 0.9995703750850121 0.8902117694447499
0.04175244500979349 -0.017035982437874176 0.22567380722183783 -0.009303743659069186 0.028674707287741987 0.9995454974716703 0.7484981728339207
0.033782933186015864 -0.007305591999216669 0.22191596419199894 -0.03396513238677284 0.2083729189257958 0.977459511407144 0.4413509272591713
0.032858033067117834 -0.005513826638215922 0.22783384374489518 -0.06583614546239408 0.43849587024581016 0.8963185670999033 0.36915114449326963
0.030208884488165274 0.005038867441270202 0.22606849281799007 0.0027194497820080773 0.9904065783871046 0.1381572078482743 0.19722208398030808
0.030822066518871528 0.013036512938181817 0.22081938582860514 0.05229923823145843 0.6538286717115438 -0.7548329998935708 0.2287598573456817
0.033016069143812686 0.02028059327128234 0.22223678255828816 0.07069881330636095 0.47031344605304354 -0.8796629696984994 0.33880024751943993
0.03204364289048204 0.017649841660148196 0.2255472275260157 0.08458979948455578 0.5687077328369268 -0.8181785137942975 0.35996092916981576
0.033598880392380195 0.021703050991158313 0.22780122748646986 0.09463051051324692 0.5558775708464363 -0.825860274326031 0.40471063676038266
0.036144607581607584 0.028114031493661592 0.2267063905509108 0.09812425296719735 0.4472597044230639 -0.8890052799500254 0.4846741706796879
0.0384351155528032 0.0325920434267056 0.22170283621557976 0.07617416751148084 0.307247371199989 -0.9485760639477621 0.5216135879139906
0.039378364865873476 0.03397913091184147 0.2256957455798499 0.09500105831635722 0.3492638528976244 -0.932196095238485 0.5672479945190456
0.04361818861190829 0.03997064651903313 0.2240979065435367 0.08663244335371918 0.23827962366874028 -0.9673249922868984 0.7271943025486471
0.05263528015885518 0.04639595805119759 0.21834042250998564 0.0375857330924494 0.07631178505802372 -0.99637534299538 1.0728585285849004
0.05984261338554155 0.048739304268202055 0.22024091930726913 0.027087499620394525 0.041790362590252275 -0.998759146620891 1.2612408267054815
0.06887867417368727 0.04917346901032531 0.21812512032380943 -0.001965105681725035 0.0019697014058100985 -0.9999961293105246 1.5096471373116909
0.072346325479457 0.04892643089329314 0.21442614231681603 -0.003358790647540106 -0.0022870291797008314 -0.9999917439773776 1.5657511232404864
0.07827488817117892 0.04860657520263543 0.21526898126085767 -0.006322508570778013 -0.00570305751892194 -0.9999637498531174 1.6160488804148152
