0.007543954 0.03667858 -0.02066488 0.0466507 -0.0845849 -0.995267
0.005355798 0.03964555 -0.02055096 -0.015378 0.437933 -0.896457
0.0004314738 0.04001729 -0.02052452 -0.0183147 0.494129 -0.8644
-0.004310396 0.04033529 -0.02009731 -0.14482 0.798954 -0.581507
-0.008002039 0.0399212 -0.01978425 -0.167288 0.833117 -0.526212
-0.01080738 0.03953034 -0.01931816 -0.251957 0.80589 -0.535288
-0.01507901 0.03690455 -0.02059074 -0.104624 0.429809 -0.892092
-0.01199987 0.03720287 -0.02074897 -0.00302051 0.00318894 -0.999428
-0.00511787 0.03709415 -0.02060049 -0.134309 -0.130972 -0.981606
-0.001143426 0.03693355 -0.020625 -0.0437957 -0.168115 -0.983621
0.00152965 0.03702985 -0.020582 0.0754624 -0.0707874 -0.994246
-0.008831108 0.03666929 -0.02063833 0.0826052 -0.051098 -0.994712
-0.01296117 0.03415817 -0.02062007 0.0615066 -0.0247884 -0.997624
-0.01904392 0.03339074 -0.0206659 0.0436115 -0.0599056 -0.997158
-0.02365932 0.03189787 -0.02057084 -0.0897804 0.179079 -0.979321
-0.02678304 0.02863916 -0.0207132 -0.0387632 -0.0261291 -0.99823
-0.01558267 0.03405294 -0.02060525 0.0262267 -0.00937444 -0.998287
-0.02112624 0.0309631 -0.0205916 0.00683023 -0.0135635 -0.997789
-0.02399028 0.02922555 -0.02061928 0.118157 0.0487571 -0.990646
-0.02798377 0.02611208 -0.02067784 0.0211485 -0.0279226 -0.999161
-0.02954556 0.02402802 -0.02063685 0.0146998 0.0109874 -0.999761
-0.03382162 0.01804331 -0.02067274 -0.073241 -0.0598164 -0.994572
-0.03281288 0.02098043 -0.02065987 -0.00202941 0.0417399 -0.999092
-0.0339728 0.01471248 -0.02063884 0.0948301 0.0353927 -0.994231
-0.03654404 0.01365826 -0.02062117 0.0500213 0.0433326 -0.997307
-0.03840645 0.006262199 -0.02055425 0.00436951 0.00428643 -0.999801
-0.03849006 -0.003748585 -0.02039585 -0.000382774 0.0300142 -0.999242
-0.03973634 -0.007141634 -0.02035623 -0.381208 -0.0536238 -0.920581
-0.03972995 -0.01088644 -0.01938406 -0.887248 -0.261799 -0.379667
-0.03899952 -0.01375229 -0.01910531 -0.906631 -0.267971 -0.324098
-0.04066256 -0.009394271 -0.01739914 -0.945581 -0.215834 -0.240027
-0.0410559 -0.005129506 -0.01905014 -0.940781 -0.106877 -0.320397
-0.04144109 -0.002613309 -0.01846055 -0.989019 -0.0482013 -0.129077
-0.04151556 0.001553372 -0.01874525 -0.988966 0.0126643 -0.147256
-0.04180113 0.003779319 -0.01700886 -0.913409 0.0537589 -0.391877
-0.04080749 0.005518608 -0.01970493 -0.902227 0.151842 -0.402549
-0.04027269 0.00833507 -0.01970653 -0.889214 0.223284 -0.397731
-0.03953845 0.01132003 -0.0192614 -0.891772 0.242053 -0.374487
-0.0389303 0.01423614 -0.0183649 -0.884443 0.416274 -0.208655
-0.03744955 0.01612623 -0.01998145 -0.778239 0.383825 -0.496719
-0.03683995 0.01856423 -0.01899898 -0.805984 0.450982 -0.382951
-0.03506659 0.02209076 -0.01835613 -0.859651 0.470077 -0.193559
-0.03675231 0.01994072 -0.01675217 -0.865718 0.469642 -0.169449
-0.0384544 0.0165913 -0.01649659 -0.908556 0.416002 -0.0315212
-0.04002673 0.01243635 -0.01662526 -0.954217 0.290756 -0.0477513
-0.04070283 0.009862989 -0.0152702 -0.972862 0.231286 0.000712449
-0.04085722 0.007629049 -0.01725767 -0.798845 0.105729 -0.591167
-0.039435 0.002740706 -0.02041215 -0.061518 -0.0431614 -0.997055
-0.03774288 0.008895168 -0.0205408 0.0480336 -0.0563748 -0.997138
-0.03676192 0.003115698 -0.02065829 -0.0192423 0.0102743 -0.994955
-0.0377957 -0.000212261 -0.0203586 -0.167216 0.0771185 -0.980266
-0.03555087 0.00546319 -0.02018027 0.584901 -0.0572166 -0.808397
-0.006873023 0.003044294 -0.0166901 0.00132872 -0.0122332 -0.999794
-0.01514074 0.01767782 -0.0179794 0.0156912 -0.0576267 -0.997406
-0.01631111 0.03150493 -0.0202029 0.313404 -0.627102 -0.711862
-0.002402812 0.00131984 -0.01661888 -0.0368296 -0.0619713 -0.997063
0.002864757 0.0158038 -0.01743596 -0.049454 -0.200906 -0.978028
0.006459849 0.02118774 -0.01790247 -0.0460201 -0.0455687 -0.997222
0.004348752 0.0365672 -0.02061898 -0.0471786 -0.00613584 -0.998749
0.01289965 0.03841364 -0.02010861 0.278849 0.732219 -0.618967
0.02010882 0.03516955 -0.02007993 0.352196 0.715043 -0.603271
0.02220976 0.03490864 -0.01824545 0.532239 0.819166 -0.212142
0.01935957 0.03673329 -0.01786782 0.415952 0.876704 -0.240842
0.01646222 0.03799314 -0.01807644 0.376886 0.907381 -0.185279
0.01320137 0.03927188 -0.01765822 0.297871 0.944081 -0.137887
0.008957552 0.03999676 -0.0190906 0.231746 0.899889 -0.368977
0.006922851 0.04085546 -0.01739782 0.126261 0.867717 -0.478598
0.004050504 0.040994 -0.01861883 0.152175 0.968797 -0.189253
0.009803347 0.04055855 -0.0165156 0.269505 0.962181 -0.0347995
0.01228655 0.03981514 -0.01527221 0.298904 0.95396 0.0246002
0.009994493 0.04048448 -0.01376924 0.264571 0.964362 0.00147
0.005541883 0.04138353 -0.01478128 0.14948 0.98721 -0.0534074
0.0004150902 0.04172879 -0.01599431 -0.0503276 0.998682 0.00246113
-0.001386759 0.04129696 -0.0180249 -0.0270501 0.982383 -0.184195
-0.005980781 0.04090501 -0.01804072 -0.125157 0.955022 -0.268176
-0.003755549 0.0414616 -0.01639124 -0.131432 0.991007 -0.0081
-0.009433888 0.04050282 -0.01711056 -0.250604 0.888242 -0.384594
-0.01330954 0.03916894 -0.01772346 -0.222434 0.956103 -0.170145
-0.01606844 0.03809725 -0.0181504 -0.366158 0.900882 -0.230879
-0.01842423 0.03680914 -0.01881128 -0.434397 0.841002 -0.318428
-0.02111919 0.03506427 -0.01940091 -0.437885 0.778748 -0.448136
-0.02153859 0.03588269 -0.01681918 -0.497718 0.857786 -0.113138
-0.02441626 0.0335838 -0.01749664 -0.55076 0.709941 -0.436659
-0.026444 0.03111793 -0.01965272 -0.534086 0.650375 -0.537111
-0.0284848 0.02976971 -0.01849429 -0.571657 0.689139 -0.44225
-0.03088174 0.02778031 -0.01791537 -0.706348 0.658432 -0.258388
-0.03242668 0.024858 -0.01968956 -0.686854 0.496308 -0.530355
-0.03380876 0.02424181 -0.0175002 -0.805988 0.547912 -0.221507
-0.03316616 0.02538692 -0.01502742 -0.781365 0.62377 -0.015391
-0.03132869 0.02772844 -0.01405803 -0.752508 0.655623 -0.0598588
-0.02872263 0.03044081 -0.01587717 -0.691998 0.71861 0.0662672
-0.02669781 0.032392 -0.01664118 -0.63972 0.764309 -0.0368243
-0.02712385 0.03190929 -0.01291464 -0.628474 0.777542 -0.00633269
-0.02449421 0.03392676 -0.01367882 -0.585481 0.810484 -0.0109442
-0.02051738 0.03643424 -0.0139367 -0.466412 0.884028 -0.0283134
-0.0183129 0.03756204 -0.01576042 -0.428276 0.902921 0.0254861
-0.01524753 0.0388611 -0.01512813 -0.359403 0.933089 -0.00913259
-0.01222889 0.03990557 -0.01495319 -0.294925 0.95545 -0.00895139
-0.008370213 0.04087738 -0.01474946 -0.18775 0.981986 0.0118115
-0.01044908 0.0404532 -0.01205559 -0.235843 0.971491 -0.0150544
-0.007570151 0.04099333 -0.01143276 -0.174045 0.984671 0.0112303
-0.003311638 0.04151722 -0.01347936 -0.0918541 0.995184 -0.0324817
-0.0008858538 0.04172273 -0.01230656 -0.0210722 0.999421 -0.0260027
0.002437235 0.04168793 -0.01376846 -0.00613642 0.999917 0.000728141
0.0028616 0.04172441 -0.01073007 0.0407734 0.99829 -0.0258457
0.00635053 0.04131246 -0.01108492 0.171521 0.985167 0.0019774
0.009002712 0.04073947 -0.01123192 0.238099 0.971235 0.00131283
0.01327356 0.03950537 -0.01224746 0.315637 0.948804 -0.00723564
0.01669071 0.03825617 -0.01513226 0.393584 0.918816 0.0278079
0.01957913 0.03690927 -0.0140606 0.457352 0.889102 0.00648534
0.02291699 0.03502894 -0.01379126 0.541044 0.839976 -0.0403774
0.02449578 0.0334088 -0.01788441 0.559709 0.765191 -0.311239
0.02752066 0.03150883 -0.01630585 0.654604 0.755383 0.0210699
0.0297463 0.02951005 -0.01497083 0.668713 0.739011 -0.0681759
0.02781725 0.03121345 -0.0137115 0.643215 0.765384 -0.0213254
0.02512218 0.03353504 -0.01385483 0.566723 0.821194 -0.0628369
0.02620028 0.03280669 -0.01086984 0.637063 0.769456 -0.0324348
0.02949917 0.02973636 -0.01149034 0.686953 0.723171 0.0689407
0.03117198 0.02781217 -0.01252083 0.77454 0.632065 -0.0196883
0.03208613 0.0266098 -0.01472914 0.782945 0.621663 -0.0216217
0.03417715 0.02390015 -0.01421502 0.81653 0.575991 -0.0365832
0.03551691 0.02196005 -0.01560011 0.82909 0.55899 0.00973258
0.0369246 0.01973651 -0.01596346 0.866829 0.498588 -0.00119295
0.03761942 0.01746632 -0.01787753 0.892492 0.387186 -0.226662
0.03892767 0.01442137 -0.01789417 0.915924 0.345161 -0.199116
0.03874274 0.01260332 -0.02008942 0.761798 0.252188 -0.595583
0.03947246 0.01001823 -0.02021874 0.762705 0.261906 -0.586564
0.03988676 0.0113862 -0.01788594 0.901141 0.338776 -0.265861
0.04055756 0.008044154 -0.01833028 0.975405 0.184187 -0.106222
0.04091632 0.00963386 -0.01615864 0.969489 0.244431 -0.00540114
0.04163373 0.00598319 -0.01626606 0.992055 0.102335 0.0730068
0.04151092 0.007230028 -0.01388927 0.981095 0.191639 -0.0158875
0.04122515 0.004162466 -0.01820762 0.995152 0.0597547 -0.0700303
0.04206181 0.0007002051 -0.0165463 0.997568 0.0356907 -0.0210403
0.04127448 0.001250339 -0.01904706 0.957899 0.035787 -0.281757
0.04136784 -0.001772116 -0.01873455 0.98191 -0.0712479 -0.163082
0.04071544 -0.004001018 -0.02024337 0.838663 -0.0810043 -0.531957
0.04047507 -0.006597348 -0.01993055 0.865468 -0.182724 -0.458618
0.03969246 -0.01011131 -0.01990389 0.850023 -0.192559 -0.482208
0.03818214 -0.01455346 -0.01999745 0.756873 -0.302711 -0.57713
0.03936635 -0.01249703 -0.01892812 0.927727 -0.301721 -0.217528
0.04039843 -0.01097326 -0.0169976 0.830132 -0.229943 -0.497883
0.04072686 -0.008176656 -0.01768015 0.937679 -0.24064 -0.23904
0.04146254 -0.005658653 -0.01696627 0.836624 -0.131462 -0.528679
0.0420021 -0.003079431 -0.01574041 0.991102 -0.115377 0.0578192
0.04159136 -0.005484579 -0.01375469 0.991315 -0.130056 -0.0125036
0.04118808 -0.008360687 -0.01417523 0.982512 -0.185691 -0.00672861
0.04045467 -0.0115662 -0.01440708 0.962181 -0.270889 -0.0256797
0.03966101 -0.01366302 -0.01654081 0.941261 -0.299106 -0.139726
0.03726559 -0.01827095 -0.01814246 0.876655 -0.48049 0.0192735
0.03637846 -0.02066155 -0.01684216 0.856428 -0.463807 -0.215813
0.03489013 -0.02279041 -0.01755741 0.820579 -0.523521 -0.222524
0.03181725 -0.02683007 -0.01843956 0.730357 -0.644308 -0.218412
0.02998459 -0.02879544 -0.01846194 0.698868 -0.681195 -0.216615
0.02783051 -0.03089553 -0.01844031 0.664708 -0.721041 -0.189831
0.02449653 -0.03337873 -0.01894787 0.606804 -0.738544 -0.293559
0.02539818 -0.03086714 -0.02058886 0.195744 -0.221854 -0.952346
0.02156661 -0.03374707 -0.02063175 0.246088 -0.395987 -0.881935
0.02253037 -0.0310933 -0.02067852 -0.00236304 -0.0301282 -0.999448
0.02695069 -0.02616427 -0.0206835 -0.0596406 0.0758245 -0.994913
0.02415355 -0.02812941 -0.0207125 -0.011768 0.0176873 -0.998464
0.01844315 -0.03359377 -0.02066879 0.0211395 0.0296513 -0.998771
0.01543936 -0.0363056 -0.02072962 0.00771163 0.100853 -0.99397
0.00904716 -0.03899705 -0.02055637 0.0237655 -0.288512 -0.956128
0.005676794 -0.03744562 -0.02062436 0.0618708 0.142513 -0.987817
0.009496337 -0.03594625 -0.02062696 0.00310477 0.140531 -0.989274
0.01313206 -0.03486104 -0.02060628 0.00796452 0.00501219 -0.999472
0.006741542 -0.04016699 -0.02024245 0.100186 -0.582162 -0.805514
0.01225941 -0.03895135 -0.02001611 0.221877 -0.700475 -0.675705
0.01538569 -0.03866239 -0.01850143 0.334704 -0.910728 -0.23795
0.01825758 -0.03748618 -0.01794217 0.494503 -0.853792 -0.160655
0.01994358 -0.03587423 -0.01983524 0.390118 -0.747311 -0.534459
0.02126265 -0.03598953 -0.0174018 0.4997 -0.801449 -0.320151
0.0257374 -0.03333912 -0.01657927 0.591083 -0.803313 -0.0286613
0.02434966 -0.03429572 -0.01456706 0.590442 -0.806947 -0.00561406
0.02738697 -0.03193336 -0.01498951 0.65406 -0.756164 0.0153959
0.03062721 -0.02888431 -0.01577136 0.728505 -0.681981 0.0633074
0.03223065 -0.02707209 -0.01446826 0.774694 -0.627563 -0.0764098
0.03404823 -0.02463893 -0.01517725 0.814899 -0.579048 -0.00719801
0.035913 -0.02174544 -0.0132687 0.873423 -0.486696 -0.0106803
0.0371779 -0.01917103 -0.01485787 0.898043 -0.438841 -0.0278587
0.03873307 -0.01589878 -0.01493381 0.895087 -0.445264 -0.014754
0.03774545 -0.01825778 -0.01228442 0.904749 -0.424905 -0.0273418
0.03961768 -0.01397589 -0.01277641 0.929312 -0.368919 0.0152129
0.04049236 -0.01154011 -0.01169675 0.94985 -0.312523 0.00944648
0.03982078 -0.01350312 -0.009923982 0.939529 -0.342222 -0.00615203
0.03857673 -0.01658889 -0.009672869 0.919957 -0.391616 -0.0160896
0.0367933 -0.02028099 -0.01004242 0.885553 -0.463791 -0.0243286
0.03448413 -0.02415236 -0.01149504 0.82648 -0.562526 -0.0183955
0.03178212 -0.02766202 -0.01171534 0.816714 -0.574389 -0.0242721
0.03291412 -0.02629395 -0.008459961 0.803241 -0.595401 -0.0121004
0.02857277 -0.03087638 -0.01247059 0.720784 -0.691881 0.0165368
0.02614813 -0.03296486 -0.01234902 0.606716 -0.794509 -0.0186596
0.02099954 -0.03647907 -0.01471792 0.502535 -0.864453 -0.012325
0.01861725 -0.03774353 -0.01486338 0.444609 -0.895699 -0.00510475
0.01514302 -0.03927605 -0.01504107 0.374031 -0.927402 0.00242386
0.01258295 -0.04001363 -0.01697227 0.256549 -0.815979 -0.516749
0.009615628 -0.04052697 -0.01802366 0.232658 -0.955499 -0.180611
0.005356522 -0.04133872 -0.01789376 0.177797 -0.971003 -0.156284
0.007351185 -0.04144599 -0.01583838 0.183236 -0.982264 0.0394265
0.009894665 -0.04090331 -0.01513058 0.208218 -0.977964 -0.00172904
0.003394953 -0.04200432 -0.01572163 0.0860567 -0.995083 0.0468473
0.0003667231 -0.04220567 -0.01522109 0.0387185 -0.998261 0.013302
0.0006623954 -0.04172108 -0.0180264 0.033899 -0.982405 -0.183491
-0.001969141 -0.04154146 -0.01825944 -0.0846808 -0.967756 -0.236365
-0.003319907 -0.04203013 -0.01607457 -0.117785 -0.992438 0.019743
-0.00664189 -0.04157875 -0.01447207 -0.152224 -0.987832 -0.0301724
-0.01033867 -0.0407531 -0.01523988 -0.248461 -0.968528 -0.00641822
-0.01313214 -0.03992918 -0.01483291 -0.316303 -0.947869 -0.0373876
-0.01681287 -0.03858724 -0.0158036 -0.382889 -0.923631 0.0148836
-0.01983537 -0.03716278 -0.01584583 -0.46318 -0.886026 0.0195713
-0.02245622 -0.03519462 -0.01751001 -0.510136 -0.792215 -0.324433
-0.02526793 -0.03320343 -0.01740942 -0.538199 -0.729032 -0.409548
-0.02759557 -0.03104757 -0.01831979 -0.654392 -0.73116 -0.191581
-0.03108823 -0.02766276 -0.01810793 -0.734304 -0.654561 -0.179121
-0.03276667 -0.02651441 -0.01647574 -0.765509 -0.640756 -0.0246986
-0.03069602 -0.02881043 -0.01577043 -0.741078 -0.66957 0.0379185
-0.02851668 -0.03093572 -0.01488427 -0.667595 -0.743925 -0.00956671
-0.02652811 -0.03274364 -0.01425142 -0.618228 -0.785254 -0.0268201
-0.02409761 -0.0344755 -0.01496978 -0.605396 -0.795425 -0.0193033
-0.02483916 -0.03408817 -0.01210427 -0.58199 -0.813091 0.012225
-0.02115403 -0.03645355 -0.01336698 -0.492757 -0.870027 -0.0155
-0.01910382 -0.03754478 -0.01193595 -0.43402 -0.900697 0.0143239
-0.02123813 -0.03643149 -0.01071842 -0.480683 -0.876508 0.0207868
-0.01981167 -0.0371444 -0.008580374 -0.455829 -0.889511 0.0309315
-0.01738571 -0.03826971 -0.009509867 -0.401327 -0.914999 -0.033234
-0.01476366 -0.03939664 -0.01165511 -0.355971 -0.934378 -0.00467723
-0.0118245 -0.04040389 -0.01120585 -0.279448 -0.960019 0.00133144
-0.009627079 -0.04099086 -0.01271112 -0.234631 -0.971427 -0.0276164
-0.005322997 -0.04179597 -0.01177962 -0.111633 -0.993137 0.032544
-0.002572663 -0.04210909 -0.01322999 -0.076106 -0.996552 -0.0318317
-6.447727e-05 -0.04224453 -0.01182161 -0.0234425 -0.998799 -0.040767
0.002566565 -0.042092 -0.0122143 0.112446 -0.993157 -0.0298323
0.005398802 -0.04176275 -0.01390192 0.0942905 -0.994807 -0.0328935
0.008011073 -0.04135222 -0.01188021 0.199548 -0.979884 -0.00135445
0.01175332 -0.04045443 -0.01249409 0.288672 -0.95734 0.0107528
0.009962449 -0.0409271 -0.0101237 0.233684 -0.972207 -0.013217
0.01256652 -0.04019981 -0.009754521 0.303218 -0.952805 -0.0142716
0.01656401 -0.03870969 -0.01191045 0.394926 -0.918577 -0.0145034
0.01896792 -0.03762161 -0.01171498 0.445332 -0.895282 -0.0101121
0.02185092 -0.03601833 -0.01221758 0.517234 -0.855778 0.00519849
0.0242077 -0.03442649 -0.01107297 0.572981 -0.819393 0.0154207
0.02494272 -0.03391014 -0.007877629 0.594775 -0.803748 -0.0116622
0.02822613 -0.03121898 -0.009467431 0.688112 -0.724849 -0.00206571
0.03022916 -0.02932502 -0.008568439 0.702161 -0.711282 -0.0178767
0.02822446 -0.0312038 -0.006661874 0.627932 -0.77207 -0.0969533
0.029982 -0.02957324 -0.005554926 0.707426 -0.706709 -0.000196111
0.03205653 -0.02738254 -0.005402829 0.725427 -0.687783 -0.00146962
0.03370245 -0.02525254 -0.006165604 0.80901 -0.587449 -0.0162008
0.03575467 -0.02209997 -0.007861621 0.852826 -0.521547 0.0237488
0.0372311 -0.0194487 -0.007305094 0.890539 -0.454841 -0.00388088
0.03868169 -0.01651098 -0.006133196 0.924785 -0.379567 -0.0150945
0.03961209 -0.01400552 -0.007293633 0.934287 -0.355241 -0.0293896
0.04098722 -0.009701854 -0.009628247 0.972566 -0.232464 -0.000260925
0.04129848 -0.007991107 -0.0116074 0.987105 -0.158678 -0.0190357
0.0419765 -0.002677217 -0.01258477 0.996174 -0.0824322 0.020722
0.04208103 0.000612079 -0.01229509 0.999842 -0.00209457 0.0150426
0.04196193 0.002802552 -0.01468908 0.994347 0.0797589 -0.0667517
0.04191371 0.004052416 -0.01152548 0.996477 0.0834222 -0.0039192
0.04168148 0.006309667 -0.01004686 0.991283 0.130687 -0.00912598
0.0408743 0.009906912 -0.01322061 0.965484 0.260106 0.00122541
0.0402135 0.01204849 -0.01519128 0.947253 0.31784 -0.0408464
0.03924406 0.01475476 -0.01395888 0.925253 0.379113 -0.00879537
0.0401258 0.01250862 -0.01234835 0.945955 0.323754 -0.014571
0.03913999 0.01505113 -0.01113565 0.920994 0.389502 -0.00738888
0.03778766 0.01817103 -0.01271587 0.913773 0.404702 -0.0299058
0.03640896 0.02059934 -0.01290121 0.829006 0.559159 -0.0055173
0.03647714 0.02055553 -0.01008417 0.853764 0.520498 0.0124113
0.03390228 0.024384 -0.01082287 0.798946 0.601353 -0.0066495
0.03138341 0.02758009 -0.00984982 0.773127 0.634153 0.00623078
0.03284035 0.02575957 -0.008500327 0.786599 0.617356 0.00570534
0.03467057 0.02332035 -0.008117353 0.809942 0.586282 -0.0143872
0.0360595 0.02115989 -0.007564956 0.85393 0.516632 0.0612096
0.03769404 0.01824089 -0.009691957 0.880242 0.471534 -0.0525709
0.0387034 0.01617266 -0.007828946 0.909959 0.414614 -1.64098e-05
0.03967296 0.01387395 -0.008697079 0.933416 0.358577 0.0123931
0.04114164 0.009345386 -0.008803071 0.97139 0.236691 -0.00580765
0.04093136 0.01011117 -0.006030195 0.969426 0.245204 -0.000273039
0.04158744 0.006989794 -0.006806233 0.988846 0.148494 0.00252117
0.04197873 0.003413572 -0.007655224 0.997642 0.0673681 -0.00246038
0.04202971 -0.0009336987 -0.009942852 0.999617 -0.0269465 0.00256901
0.04165544 -0.005078495 -0.01080899 0.996778 -0.0793695 -0.0066135
0.04143589 -0.007356835 -0.008397743 0.98883 -0.148954 0.00112414
0.04194471 -0.002877976 -0.007489748 0.996074 -0.0843609 -0.00528603
0.04205479 0.0007330957 -0.007776654 0.999962 -0.00218801 -8.75209e-05
0.04204959 -0.0006884574 -0.005386728 0.999547 -0.028913 -0.00822211
0.04189499 -0.003507675 -0.004727379 0.989883 -0.140336 -0.0101651
0.04113172 -0.008823129 -0.005177294 0.976354 -0.215987 0.00441874
0.04048256 -0.01157099 -0.00787749 0.95832 -0.28532 0.0105537
0.04028846 -0.01215867 -0.004986756 0.959373 -0.281744 0.00877425
0.03976443 -0.01382327 -0.002932666 0.94232 -0.330911 0.0268265
0.03865897 -0.01645395 -0.002989762 0.809457 -0.568836 -0.136465
0.03645091 -0.02076894 -0.005101608 0.867718 -0.492935 0.0622621
0.03504365 -0.02317666 -0.004920928 0.855393 -0.517492 0.0211541
0.03595631 -0.02180961 -0.002358046 0.871597 -0.489917 -0.00670913
0.03744777 -0.01899792 -0.003369626 0.886824 -0.461423 -0.0209634
0.03373751 -0.02508414 -0.00352308 0.815153 -0.574471 0.0703756
0.03388746 -0.02501464 -0.0005596518 0.82236 -0.568311 0.0211964
0.03222967 -0.02715523 -0.001222361 0.759589 -0.650182 -0.0129816
0.02949254 -0.0300679 -0.002958501 0.682458 -0.730879 -0.00696747
0.0251768 -0.033783 -0.005230162 0.581964 -0.812814 -0.020454
0.02114176 -0.03641453 -0.008270404 0.501769 -0.864918 0.00535036
0.01862717 -0.03776992 -0.008585892 0.438802 -0.898426 0.0105114
0.01569653 -0.03907311 -0.008577945 0.373675 -0.927525 -3.73129e-05
0.01612451 -0.03887331 -0.00540132 0.383063 -0.923682 0.00766867
0.01121956 -0.04066494 -0.006717671 0.278488 -0.960277 0.00284838
0.008213609 -0.04134112 -0.007961912 0.195695 -0.980551 -0.0138334
0.006212818 -0.04167965 -0.009961566 0.165612 -0.985818 -0.025455
0.003674808 -0.04204168 -0.009200107 0.13356 -0.990954 -0.0128114
0.0009254679 -0.04231397 -0.009006558 0.0429341 -0.999057 -0.00250421
-0.002509743 -0.04209492 -0.01010363 -0.127719 -0.991081 0.0375389
-0.005693782 -0.04164589 -0.00900323 -0.119679 -0.992362 -0.025245
-0.008448189 -0.04124688 -0.009439798 -0.202881 -0.978079 -0.0418653
-0.01098433 -0.04068848 -0.008385133 -0.257778 -0.965551 0.0303929
-0.01343359 -0.03983625 -0.007873656 -0.333506 -0.941833 0.0055996
-0.01629419 -0.0387074 -0.006228385 -0.402576 -0.915338 -0.00686239
-0.01856836 -0.03769332 -0.005330247 -0.430172 -0.902619 0.00653969
-0.0225085 -0.03563367 -0.008350111 -0.518859 -0.853731 0.04162
-0.02450946 -0.03434158 -0.009510786 -0.561415 -0.827004 -0.0227807
-0.02816331 -0.03130899 -0.01207781 -0.673671 -0.738213 -0.0325648
-0.03005772 -0.02947497 -0.01265133 -0.729826 -0.683482 0.0140706
-0.03229118 -0.02700515 -0.01250704 -0.77172 -0.635754 -0.0114751
-0.03449086 -0.02400676 -0.01578306 -0.820213 -0.572056 0.00128453
-0.03367291 -0.02366108 -0.01948281 -0.707763 -0.591435 -0.385479
-0.0362071 -0.02056815 -0.01753055 -0.863952 -0.485487 -0.129496
-0.03739676 -0.01809993 -0.01829871 -0.871571 -0.452599 -0.186117
-0.03749401 -0.01891404 -0.01564781 -0.893176 -0.449652 -0.0044186
-0.03906977 -0.01546739 -0.01620389 -0.927602 -0.373336 0.00695845
-0.03995769 -0.01302169 -0.01655244 -0.944125 -0.318105 -0.0762828
-0.04059384 -0.01055432 -0.01474447 -0.975469 -0.219999 3.59276e-05
-0.04117125 -0.007502469 -0.01504799 -0.985865 -0.167072 0.00382635
-0.04158346 -0.004725882 -0.01573603 -0.993024 -0.116674 0.0152808
-0.04200018 -0.0006052663 -0.01570183 -0.997106 -0.0222986 0.070385
-0.04200022 0.001958122 -0.01445351 -0.998811 0.0267716 0.02827
-0.04148022 0.006032812 -0.0150879 -0.984617 0.169537 0.0412994
-0.04159992 0.005645053 -0.0118466 -0.989037 0.147242 -0.00901562
-0.04104308 0.008557101 -0.01272778 -0.98095 0.19267 -0.0241342
-0.04026496 0.01174694 -0.01345248 -0.956638 0.291128 -0.00408536
-0.03917883 0.0147844 -0.01409439 -0.929918 0.367556 -0.00617365
-0.03816433 0.01716629 -0.01365951 -0.907118 0.420505 0.0161683
-0.03577887 0.02171138 -0.01457021 -0.857414 0.514395 -0.00730381
-0.036361 0.02068725 -0.01170307 -0.872286 0.488741 -0.015042
-0.03783027 0.01786253 -0.01082606 -0.899768 0.436288 0.00729431
-0.0389149 0.01568154 -0.009894446 -0.896324 0.434402 -0.0855393
-0.03971594 0.01348732 -0.01150184 -0.956769 0.283721 0.0497627
-0.04024165 0.01177796 -0.009498439 -0.963391 0.267331 0.00909113
-0.04099469 0.008926816 -0.009158667 -0.966891 0.254641 -0.015559
-0.04156244 0.006745765 -0.007567227 -0.97986 0.185052 0.00486606
-0.04182596 0.003649851 -0.009994674 -0.995801 0.0913072 0.00530795
-0.04195049 -0.0003078883 -0.01088246 -0.999888 -0.00894669 -0.000605858
-0.04182556 -0.002651641 -0.01365059 -0.992728 -0.119623 0.00666909
-0.04144027 -0.005946356 -0.01275067 -0.992 -0.125912 -0.00655893
-0.04093847 -0.008858009 -0.01233974 -0.981548 -0.191057 -0.00461196
-0.04035017 -0.01157432 -0.0119365 -0.973558 -0.228303 0.00586208
-0.03973231 -0.01382996 -0.01321004 -0.937209 -0.348256 -0.0183342
-0.03813457 -0.01766777 -0.01344913 -0.907522 -0.419158 -0.0227556
-0.03591603 -0.02183803 -0.01526723 -0.853258 -0.521374 0.00678798
-0.03625399 -0.02133392 -0.01222115 -0.855726 -0.517011 0.00958478
-0.03425156 -0.02446039 -0.0130274 -0.804201 -0.59428 0.00374901
-0.03495439 -0.02339224 -0.01021035 -0.833522 -0.55239 0.00368346
-0.03320018 -0.02582129 -0.01031327 -0.804308 -0.593674 -0.0164562
-0.03054544 -0.02901184 -0.01010972 -0.734376 -0.678534 -0.0159563
-0.03170054 -0.02769429 -0.008115902 -0.762349 -0.646715 0.0183472
-0.033523 -0.02545421 -0.007622698 -0.807325 -0.586703 -0.0577352
-0.03649306 -0.02091237 -0.009434164 -0.861434 -0.507573 -0.00235044
-0.03767583 -0.0186798 -0.01050928 -0.897826 -0.440307 -0.00293602
-0.0391388 -0.01534543 -0.01047795 -0.93052 -0.366084 -0.00643742
-0.03999797 -0.01296973 -0.009692505 -0.959179 -0.281219 0.00701869
-0.04082826 -0.009581335 -0.00834611 -0.977616 -0.209765 0.0134189
-0.04127229 -0.007116126 -0.01039357 -0.987199 -0.159236 0.00453023
-0.04168515 -0.003904071 -0.0093512 -0.992248 -0.123513 -0.00944313
-0.04142102 -0.006461301 -0.007810278 -0.988824 -0.148527 0.00805324
-0.04171169 -0.004035896 -0.005771952 -0.989304 -0.145433 -0.00551778
-0.04192678 -0.001208314 -0.007277014 -0.999011 -0.042889 -0.00821523
-0.04192551 0.001361924 -0.008074077 -0.999265 0.0297705 -0.00553456
-0.04181671 0.004164067 -0.007229003 -0.995498 0.0937643 -0.010513
-0.04166335 0.005639122 -0.005065243 -0.992354 0.122709 0.00389766
-0.04191103 0.002795244 -0.004642761 -0.99707 0.0712267 0.0237327
-0.04194655 -1.66129e-05 -0.004834717 -0.999847 0.00914304 0.010866
-0.04186451 -0.002629921 -0.003196187 -0.997474 -0.070549 -0.00157878
-0.04106248 -0.008442709 -0.005551914 -0.9811 -0.1933 -0.001559
-0.04026891 -0.01182392 -0.005599952 -0.965157 -0.260731 -0.00262829
-0.03930138 -0.01488705 -0.007273154 -0.936251 -0.350835 -0.0134995
-0.03809873 -0.01780329 -0.008054513 -0.912492 -0.408914 0.0015606
-0.03679717 -0.02048319 -0.005495493 -0.874578 -0.484742 -0.00354734
-0.03568076 -0.02230792 -0.007304346 -0.844406 -0.535608 -0.00843279
-0.03544756 -0.02269267 -0.004501031 -0.838436 -0.544934 -0.00367023
-0.03194335 -0.02737362 -0.005553067 -0.758713 -0.651336 0.00720729
-0.02969055 -0.0299242 -0.00742999 -0.730622 -0.682737 0.0060774
-0.02814075 -0.03139064 -0.008936422 -0.663914 -0.74778 -0.000714782
-0.02782574 -0.03167045 -0.005871485 -0.666501 -0.745487 0.00345199
-0.02524208 -0.03378964 -0.005793079 -0.572452 -0.819596 0.014545
-0.02345091 -0.03503484 -0.004365241 -0.537578 -0.841939 -0.0430686
-0.02083102 -0.03654651 -0.006167876 -0.462541 -0.885243 0.0433847
-0.01891631 -0.03752831 -0.002700696 -0.438512 -0.898643 -0.00923415
-0.01340743 -0.03986179 -0.004407257 -0.341386 -0.939871 -0.00673057
-0.008855289 -0.04118277 -0.006524329 -0.191017 -0.981357 0.0108443
-0.004119436 -0.04185403 -0.006775261 -0.109915 -0.993905 0.00423814
-0.001266755 -0.04215223 -0.007343994 -0.0816358 -0.996447 -0.00789773
0.0005041601 -0.04231742 -0.005231071 -0.0196716 -0.999547 -0.00744497
-0.00218387 -0.04214785 -0.004465923 -0.0946851 -0.994901 -0.0226114
-0.007274984 -0.04144622 -0.004401029 -0.131493 -0.991095 -0.0139939
-0.004915089 -0.04180592 -0.003183615 -0.129946 -0.99142 -0.0134757
-0.01062825 -0.04075252 -0.003942833 -0.236648 -0.971009 -0.0307124
-0.00922309 -0.04111314 -0.001756793 -0.215908 -0.976199 -0.019362
-0.01268262 -0.04010727 -0.001796578 -0.335061 -0.942147 0.000469868
-0.01514357 -0.03920683 -0.002465092 -0.355206 -0.934667 -0.011579
-0.0148405 -0.0393673 0.0004180534 -0.357032 -0.933975 0.00475011
-0.011637 -0.04049093 0.0007939015 -0.279401 -0.960011 0.00435754
-0.00723587 -0.04150191 0.0001071641 -0.177831 -0.983923 0.0146684
-0.003363795 -0.04205723 -0.001055907 -0.127638 -0.99135 -0.029278
0.0001389624 -0.04230823 -0.002629411 -0.00978767 -0.999689 0.00529615
0.003533117 -0.04207403 -0.00514677 0.114587 -0.99329 0.011885
0.006976015 -0.04160815 -0.005558804 0.181426 -0.983258 -0.00694091
0.009894015 -0.04100222 -0.004199972 0.249378 -0.968297 0.00379462
0.01369494 -0.03981749 -0.004750162 0.336838 -0.941552 0.00173841
0.01461241 -0.03948923 -0.002104852 0.357498 -0.933885 0.00409338
0.01788439 -0.03810439 -0.003400146 0.42213 -0.906458 -0.00668303
0.02027715 -0.03690548 -0.005241738 0.479722 -0.877382 0.00196228
0.02273028 -0.03543705 -0.005685544 0.543822 -0.839164 -0.00506409
0.02292136 -0.03534386 -0.001719675 0.528973 -0.848617 0.002324
0.0203182 -0.0368566 -0.002099551 0.480761 -0.87678 0.00201574
0.01793051 -0.03806304 -0.0003225976 0.424885 -0.90513 0.00127377
0.02041624 -0.03682212 0.0006613183 0.477476 -0.878576 -0.00561817
0.02265328 -0.03552049 0.001591484 0.532726 -0.846122 0.0051389
0.02547967 -0.03352419 -0.0009539729 0.587224 -0.806444 -0.0686301
0.02765084 -0.03172391 -0.001965853 0.653735 -0.756321 0.0188405
0.03003505 -0.0295618 -0.000221617 0.728726 -0.684602 -0.00144546
0.03150985 -0.02802048 0.002213603 0.807672 -0.588534 0.0237834
0.03573015 -0.02217187 0.0008224216 0.852831 -0.520556 -0.0388922
0.03729055 -0.01939903 0.0003577189 0.889439 -0.452049 0.0656543
0.03843752 -0.01703599 -0.0004689578 0.907152 -0.419357 -0.0116447
0.0395266 -0.01450178 0.0002384878 0.939102 -0.342996 0.0120485
0.04046294 -0.01181895 -0.001205108 0.967914 -0.242547 -0.0536407
0.04099536 -0.009683162 -0.002703155 0.980436 -0.195632 -0.00988397
0.04154102 -0.00638113 -0.003420239 0.994926 -0.0944368 -0.0339398
0.04182282 -0.004074925 -0.002033797 0.990705 -0.135994 0.000284475
0.04157558 -0.006499234 -0.0003552303 0.986585 -0.160197 0.00485952
0.04102748 -0.009366785 0.0001919283 0.971659 -0.235683 -0.011035
0.04035263 -0.01222628 0.001557825 0.953359 -0.298198 -0.0382528
0.04007219 -0.012958 0.004118185 0.947738 -0.318813 0.00962376
0.03896116 -0.01590049 0.003438491 0.918746 -0.394757 0.00654166
0.03762482 -0.01881806 0.004084656 0.895291 -0.445047 -0.0187734
0.03634122 -0.02120532 0.003330329 0.868228 -0.49548 -0.0239234
0.03459597 -0.02399642 0.003188467 0.833292 -0.552482 -0.0185415
0.03338091 -0.02567952 0.004817021 0.743893 -0.66676 -0.0422205
0.02949877 -0.03006572 0.002946134 0.703158 -0.711 0.00570115
0.02747536 -0.03191731 0.001842657 0.649037 -0.760326 -0.0207048
0.02495582 -0.03391726 0.001716615 0.592247 -0.805496 0.0153756
0.02607699 -0.03305615 0.004185952 0.630322 -0.776056 0.0185663
0.02784228 -0.03154793 0.005420498 0.65771 -0.753235 0.00291218
0.0312775 -0.02826055 0.004816167 0.787004 -0.61544 0.0173006
0.03172746 -0.0276836 0.007448494 0.748292 -0.662443 0.0147936
0.02962934 -0.02987695 0.006498666 0.701045 -0.713033 0.00644194
0.0275028 -0.03294624 0.01117242 0.572109 -0.80273 -0.0737523
0.02384818 -0.03470634 0.005670249 0.565414 -0.82473 0.0109622
0.0212056 -0.03637698 0.004069829 0.499035 -0.866573 0.000706344
0.01830496 -0.03791758 0.003227058 0.427012 -0.904217 -0.00328212
0.01531841 -0.03921229 0.00070189 0.371003 -0.928551 -0.00751782
0.01155361 -0.04053462 -0.001519695 0.30019 -0.953812 -0.00749457
0.008954467 -0.04123342 -0.001372872 0.232324 -0.972578 -0.0100578
0.006385372 -0.04169671 -0.00145765 0.144403 -0.989458 -0.00769238
0.00325693 -0.0421095 -0.002513489 0.115627 -0.992837 0.0290679
0.003277247 -0.04207906 0.0009950355 0.0985844 -0.995094 0.00621185
-2.273358e-05 -0.04226386 0.0002384977 -0.0126173 -0.999721 0.0193883
-0.004168096 -0.0419672 0.002089619 -0.12279 -0.992151 0.0182062
-0.006507371 -0.04163348 0.003263901 -0.186909 -0.98147 -0.0294104
-0.009136743 -0.04107463 0.003690874 -0.251634 -0.966095 -0.0382708
-0.01231458 -0.04029123 0.005255902 -0.343868 -0.938539 -0.0248458
-0.01811765 -0.03793549 0.0004619748 -0.432368 -0.901669 -0.00303938
-0.02049467 -0.03677158 -0.0007044415 -0.456854 -0.889242 -0.0202639
-0.02300386 -0.03525816 0.0002292902 -0.545541 -0.836886 0.0420062
-0.02522767 -0.03375728 -0.001499891 -0.608254 -0.793624 0.00163061
-0.02760407 -0.03180562 -0.002469277 -0.653597 -0.756007 0.0346361
-0.03017902 -0.02931894 -0.004777798 -0.728342 -0.684928 0.0193581
-0.02953609 -0.02995785 -0.001997157 -0.72291 -0.69059 0.0189428
-0.03184687 -0.02745891 -0.001730583 -0.757269 -0.653009 0.00354937
-0.033667 -0.02528143 -0.002456745 -0.779131 -0.626392 0.012749
-0.03297697 -0.0260567 0.0005595757 -0.769572 -0.638179 0.0166845
-0.03482673 -0.0236443 0.0002554222 -0.846696 -0.531877 -0.0102999
-0.0372388 -0.01965044 -0.002627238 -0.892121 -0.451728 1.9529e-05
-0.0385784 -0.01672842 -0.003344908 -0.921919 -0.387284 0.0065024
-0.03957186 -0.01415514 -0.004292764 -0.945955 -0.324171 -0.00338343
-0.04009477 -0.01244967 -0.001234479 -0.965826 -0.258874 -0.00183138
-0.04116129 -0.008045658 -0.00262627 -0.983849 -0.178915 -0.00280014
-0.04156307 -0.005388573 -0.00127764 -0.99797 -0.063282 -0.00589109
-0.04176878 -0.003367499 0.0004222901 -0.995458 -0.094021 -0.00392249
-0.04190291 0.001714484 -0.002247694 -0.999223 -0.032217 0.00323758
-0.04178951 0.004604511 -0.002472819 -0.9989 0.0334856 -0.00246057
-0.04114172 0.00836771 -0.003518175 -0.975089 0.220592 0.0227628
-0.04059807 0.01047053 -0.006353183 -0.973074 0.228773 0.0205748
-0.03956778 0.01382612 -0.007673156 -0.959329 0.278375 -0.0450743
-0.03858862 0.01636652 -0.00647895 -0.903425 0.428396 0.0171648
-0.03685764 0.01975624 -0.009153856 -0.889855 0.456163 0.00728368
-0.0346929 0.02341285 -0.01037926 -0.820714 0.571258 -0.0048663
-0.03251452 0.026335 -0.01164673 -0.7807 0.62285 -0.0493686
-0.03035014 0.02885059 -0.01105087 -0.716243 0.697301 0.0221915
-0.0283403 0.03072003 -0.009711287 -0.692375 0.721092 0.0223784
-0.02540733 0.03323339 -0.01079813 -0.61272 0.790276 0.0053283
-0.02278651 0.0351301 -0.01176455 -0.549099 0.835696 -0.00659349
-0.01778393 0.03782254 -0.01276269 -0.406043 0.913801 0.00752147
-0.01532834 0.03882451 -0.01251929 -0.363365 0.931598 0.00830163
-0.01267602 0.03979482 -0.0108742 -0.314917 0.949051 -0.00408572
-0.01658344 0.03835612 -0.009607946 -0.388992 0.921013 -0.0121086
-0.0141695 0.03926912 -0.008782706 -0.336822 0.94155 -0.00350102
-0.009492368 0.04063842 -0.009318301 -0.19577 0.980592 0.007153
-0.005495989 0.04131889 -0.008113747 -0.142751 0.989729 -0.00413997
-0.002237061 0.04168562 -0.009131736 -0.102497 0.994679 0.00380891
0.0003603879 0.04179975 -0.008429157 -0.00339715 0.999912 -0.01223
0.003191912 0.04173469 -0.008105494 0.0806646 0.996536 0.00399206
0.001958159 0.04184136 -0.005614114 0.0575862 0.998018 -0.0207572
0.005310643 0.04141961 -0.005926361 0.163673 0.98648 0.00730002
0.008752419 0.04081118 -0.008495921 0.228392 0.973498 0.00564259
0.01151428 0.04006685 -0.009412752 0.291887 0.956314 -0.00590859
0.01724262 0.03796695 -0.01200733 0.406344 0.913685 0.00219859
0.02110265 0.03607959 -0.01194753 0.477641 0.878333 0.0184813
0.0233214 0.03480329 -0.01073397 0.522262 0.852755 0.00606243
0.02108886 0.03606046 -0.008580345 0.470364 0.882462 -0.00144274
0.01851705 0.03737778 -0.009805712 0.436604 0.899538 0.00882861
0.01545226 0.03871431 -0.009520728 0.381683 0.924264 0.00666613
0.0165298 0.03824204 -0.007165775 0.389475 0.921021 -0.00153001
0.01376964 0.03933594 -0.007406364 0.330092 0.943902 -0.000237232
0.01151083 0.04008182 -0.006269254 0.288067 0.957588 0.00152037
0.008535128 0.04085489 -0.005899701 0.208148 0.977965 -0.0142672
0.01003939 0.04052705 -0.003033926 0.274326 0.960475 -0.0452699
0.01465776 0.03901324 -0.004470207 0.359865 0.932928 -0.0085456
0.0194098 0.03691557 -0.006728089 0.457111 0.889335 0.00791725
0.02195776 0.03561239 -0.005987555 0.453389 0.891156 0.00926938
0.02514523 0.03361908 -0.008195541 0.586509 0.80984 0.00702954
0.02794936 0.03114344 -0.009917578 0.719813 0.694135 -0.00448051
0.02975072 0.02937642 -0.008310589 0.727742 0.685404 0.0160643
0.03113974 0.02782486 -0.006297059 0.7422 0.670159 -0.000854806
0.03285001 0.0258285 -0.005435291 0.797459 0.603115 -0.0117899
0.03474057 0.02326268 -0.005222995 0.831428 0.5552 0.00275847
0.03743649 0.01878127 -0.006917462 0.886125 0.463076 0.0145157
0.03667789 0.02015235 -0.00484591 0.85996 0.510332 -0.002087
0.03863617 0.01643618 -0.00457257 0.91134 0.4114 -0.00651088
0.03962924 0.01404692 -0.004973022 0.925436 0.378719 -0.0111434
0.03936986 0.01480313 -0.002037568 0.923233 0.38394 -0.00211197
0.03785191 0.018053 -0.002501047 0.893317 0.449407 -4.95709e-06
0.03540954 0.02225804 -0.002543247 0.838191 0.545241 -0.00639083
0.03374297 0.0246661 -0.002857343 0.80616 0.59164 -0.00696969
0.03210551 0.02679254 -0.002183592 0.768117 0.640003 -0.00593835
0.02990488 0.02923758 -0.003744495 0.717617 0.695409 0.0354858
0.02783663 0.0313374 -0.005495538 0.673159 0.73942 0.00827481
0.0246935 0.03395659 -0.005029067 0.508361 0.86057 0.024737
0.02314546 0.03500396 -0.002756171 0.509751 0.859616 -0.0335563
0.02085754 0.03619091 -0.003261549 0.4442 0.895323 -0.0325041
0.01751212 0.03779098 -0.004629956 0.423301 0.905954 -0.00173615
0.01713262 0.03801807 -0.001768096 0.418857 0.907854 -0.0164615
0.01280317 0.03969544 -0.002694973 0.299283 0.95367 -0.0287069
0.01332316 0.03957682 -1.690864e-05 0.289279 0.956337 -0.0384619
0.006516057 0.0412134 -0.003178032 0.172092 0.983153 -0.0609503
0.003698436 0.04169354 -0.003403455 0.118471 0.992682 0.000984885
-0.001157251 0.04185598 -0.004574455 -0.0694056 0.996288 -0.0487058
-0.002961675 0.0415859 -0.006562918 -0.117315 0.992756 0.00725739
-0.007980486 0.04093028 -0.0048911 -0.174416 0.984626 0.00917743
-0.01103355 0.04026613 -0.006761696 -0.247531 0.968828 -0.00364557
-0.01328358 0.03959323 -0.004131442 -0.31571 0.948697 0.016879
-0.01794056 0.03774635 -0.006785167 -0.418228 0.908325 0.00145486
-0.01984291 0.03681096 -0.008848849 -0.46152 0.887109 -0.00215742
-0.0227748 0.03517211 -0.008948907 -0.550412 0.834764 -0.00122151
-0.02453906 0.03390945 -0.007150399 -0.606628 0.794976 -0.00387283
-0.02639044 0.03249986 -0.00833988 -0.616035 0.787454 -0.00963223
-0.02787548 0.03113418 -0.006095952 -0.721196 0.692686 -0.00264446
-0.03174874 0.02726677 -0.008054867 -0.768945 0.638926 -0.00340076
-0.03342278 0.02521935 -0.008902775 -0.81324 0.581772 0.00798353
-0.03492002 0.02307228 -0.007546376 -0.850741 0.525536 -0.00020251
-0.03617931 0.02098703 -0.006511763 -0.861467 0.507281 -0.016995
-0.03745331 0.01865684 -0.005989975 -0.887075 0.461564 -0.00614204
-0.03386763 0.02466954 -0.005760166 -0.800583 0.598808 0.0167568
-0.03216711 0.02679082 -0.005048208 -0.795768 0.604112 -0.0339085
-0.02984464 0.02928492 -0.006461923 -0.689705 0.724002 -0.00749908
-0.02898937 0.03017757 -0.003409438 -0.689018 0.724481 0.0185653
-0.02608613 0.03271509 -0.005080818 -0.624136 0.781299 0.000952023
-0.02124214 0.03606948 -0.006280351 -0.48667 0.873518 0.00589544
-0.0194637 0.03702005 -0.004645132 -0.448484 0.893695 -0.00423323
-0.01587937 0.03864782 -0.0046083 -0.373283 0.927609 -0.00322263
-0.01729495 0.03806513 -0.002412081 -0.408149 0.912649 -0.0214811
-0.01476438 0.03906625 -0.001982088 -0.348452 0.937287 0.00653071
-0.01040193 0.04042058 -0.003276155 -0.246101 0.969193 0.00868993
-0.01244088 0.03986447 -0.0009837499 -0.328772 0.942569 -0.05574
-0.01401009 0.03935351 0.001030487 -0.308771 0.951036 -0.0101527
-0.01124385 0.0402329 0.00135837 -0.227243 0.973818 -0.00241439
-0.005443689 0.04133512 -0.003342805 -0.126501 0.99194 0.00365139
-0.001952139 0.04179096 -0.002057182 -0.1057 0.994368 -0.00067962
-0.004923054 0.04149885 -0.0005001978 -0.171676 0.984591 -0.02587
-0.008638992 0.04087378 0.0006650259 -0.283714 0.958892 -0.000929424
-0.005568489 0.04143354 0.002116842 -0.135825 0.990542 -0.0137909
-0.001934419 0.04178976 0.0007407047 -0.123529 0.992083 0.0104927
0.00190516 0.04183694 -0.001108875 0.188453 0.980526 0.0325498
0.004699198 0.04154778 -0.0009586855 0.154107 0.987789 0.0056453
0.004842991 0.04148978 0.001913183 0.191985 0.98066 -0.0133835
0.009048358 0.04076357 0.0009151963 0.157487 0.987483 0.00428978
0.002159921 0.04182801 0.001894412 0.131835 0.991238 0.0033213
-0.0003282053 0.04197371 0.002864614 -0.0200792 0.999452 0.000898722
-0.002893529 0.04170556 0.003644885 -0.10368 0.993982 -0.0311609
-0.005543085 0.04142873 0.005917558 -0.127386 0.991762 -0.00594471
-0.008077289 0.04096863 0.004654136 -0.206529 0.978322 3.92641e-05
-0.01141217 0.04018984 0.004362191 -0.240809 0.969788 0.0251663
-0.01392499 0.03938626 0.00381659 -0.344508 0.938479 -0.0165223
-0.01678314 0.03831249 0.001568112 -0.421672 0.906212 0.0295394
-0.0204542 0.03653225 -0.001457194 -0.516428 0.855992 -0.0148468
-0.02208446 0.03557809 -0.00323967 -0.517652 0.855528 -0.00212572
-0.02494722 0.03359113 -0.002746694 -0.602058 0.798423 0.00638566
-0.02741403 0.03160965 -0.001377197 -0.654047 0.756252 -0.00219417
-0.03085415 0.02828602 -0.003076905 -0.732395 0.68076 0.0124157
-0.0335996 0.02492769 -0.003122484 -0.790672 0.612075 0.0124204
-0.03599423 0.02129461 -0.003170409 -0.865359 0.501062 0.00118303
-0.03550104 0.02214531 -0.0005895862 -0.86129 0.508029 -0.00211858
-0.03791055 0.0177431 -0.001316931 -0.910374 0.413565 0.0118591
-0.03970285 0.01340085 -0.002960308 -0.941667 0.336027 0.0147891
-0.04057229 0.01058727 -0.002191701 -0.963019 0.269118 0.01296
-0.04008177 0.01223539 -1.298398e-05 -0.950399 0.310793 -0.00984576
-0.03907266 0.01500608 -0.001015185 -0.93046 0.366199 0.00717109
-0.03932739 0.01431648 0.001650695 -0.939681 0.341465 -0.0111106
-0.04107935 0.008488106 -0.0004754231 -0.978059 0.208206 0.00542237
-0.04156243 0.006083176 0.001052739 -0.988357 0.149884 -0.00128284
-0.04189514 0.002810267 0.0002223864 -0.995996 0.0801548 0.00787292
-0.04193685 -0.0002093142 -0.0004387762 -0.999767 -0.0143549 0.0153823
-0.04191725 -0.0004290359 0.002385582 -0.999541 -0.0172316 0.0145042
-0.04187532 0.002812153 0.004363479 -0.996978 0.0751428 -0.00594897
-0.04165496 0.005671334 0.003615623 -0.996011 0.0874012 0.00906221
-0.04074605 0.009722195 0.00330549 -0.965899 0.258346 0.00440498
-0.0399695 0.01243692 0.003422595 -0.953975 0.299126 0.00416296
-0.03802747 0.01749229 0.001888364 -0.90912 0.41626 -0.00164513
-0.0369054 0.01970882 0.0004397869 -0.869416 0.493872 -0.0134943
-0.03394992 0.02448067 -0.0004007761 -0.803986 0.594373 -0.00602623
-0.03187375 0.02708016 0.0002118856 -0.779289 0.626539 0.00188094
-0.03309786 0.02556109 0.002611492 -0.776781 0.629666 -0.00962033
-0.02918294 0.0299568 0.00102958 -0.691207 0.722635 0.000871594
-0.02662068 0.03224028 0.001121409 -0.634932 0.772563 3.41228e-05
-0.02447918 0.03392335 -6.873306e-05 -0.595124 0.803572 0.00505014
-0.02228487 0.03541601 0.0004579137 -0.535262 0.844426 0.0168421
-0.01918123 0.03728265 0.0007287827 -0.392316 0.91879 0.00231548
-0.02005446 0.03676571 0.003143361 -0.453189 0.890749 0.0308827
-0.02253285 0.03526717 0.003795821 -0.546387 0.837219 -0.0176176
-0.02477838 0.03369623 0.003483254 -0.604981 0.796222 -0.00184551
-0.02702407 0.03194475 0.004809614 -0.650018 0.759184 -0.0303256
-0.02946818 0.02967333 0.004611345 -0.700252 0.713834 0.00559771
-0.03163676 0.02735284 0.004355827 -0.753795 0.657031 0.00593192
-0.03349078 0.02508046 0.00526314 -0.798067 0.602558 0.00246603
-0.03576516 0.02170032 0.002807084 -0.871822 0.489629 -0.00458638
-0.0373717 0.01884699 0.004339183 -0.901005 0.433251 -0.0216795
-0.03653547 0.02035224 0.006728354 -0.875337 0.483437 -0.00761
-0.03522398 0.02258846 0.005679895 -0.848516 0.528748 0.00820579
-0.03419194 0.02410224 0.007822855 -0.820299 0.571215 0.0278071
-0.03465889 0.0247207 0.01143295 -0.846159 0.521924 0.0227673
-0.03563461 0.02167742 0.009635169 -0.856018 0.507776 -0.0743723
-0.0384655 0.01644479 0.006521385 -0.912028 0.408201 -0.0320626
-0.03980614 0.01291356 0.006226669 -0.928709 0.366089 -0.0567723
-0.0407705 0.009537035 0.006750265 -0.966387 0.255926 0.0192073
-0.04145072 0.006636458 0.006228751 -0.987335 0.155343 -0.0198406
-0.0412156 0.007312729 0.008756665 -0.971772 0.211509 0.101695
-0.04147401 0.007931326 0.01158156 -0.119834 -0.104326 0.965299
-0.04208137 -0.006503773 0.01201984 -0.866904 -0.0922089 0.470787
-0.04093585 -0.01056515 0.01184946 -0.290984 -0.264347 0.874753
-0.03908358 -0.01561972 0.01195229 0.0710233 0.132834 0.937569
-0.04221629 0.004718767 0.01201087 -0.720105 0.457965 0.485339
-0.03823567 0.0184119 0.01086402 -0.830804 0.423666 -0.356526
-0.03993762 0.01409874 0.01054756 -0.757819 0.296746 -0.576369
-0.03116699 0.01733788 -0.02000407 0.582863 -0.43452 -0.682459
-0.03389059 0.009987769 -0.01938463 0.813308 -0.237124 -0.525701
0.01535377 -0.004488703 -0.01738348 -0.257226 0.028444 -0.965656
0.01406521 -0.007160372 -0.01733403 -0.289782 0.0866806 -0.953104
0.008297831 -0.004832644 -0.01676201 -0.049643 0.0173891 -0.998142
0.02634033 -0.01066007 -0.01852255 -0.132641 0.115777 -0.984371
0.02875284 -0.02069394 -0.01983783 -0.610693 0.400358 -0.681501
-9.814875e-05 0.003797424 -0.01663282 0.0114791 -0.0565637 -0.998227
-0.005824435 0.01449415 -0.01743387 0.182308 -0.411972 -0.891122
0.003204688 -0.001101881 -0.0166792 -0.0718654 0.0534494 -0.99565
0.01739299 -0.002218839 -0.01753821 0.204005 -0.00368224 -0.976898
0.03544202 -0.003486594 -0.02008921 -0.680354 0.0397466 -0.728134
-0.003568368 0.004047757 -0.01661593 -0.0208582 0.0353846 -0.998729
0.002718018 -0.003843232 -0.01663921 0.0601482 0.091019 -0.992638
0.001439772 -0.01583402 -0.01721605 -0.0132159 0.283175 -0.958279
0.003402356 -0.01813252 -0.01733927 -0.0273092 -0.115558 -0.992451
0.006290853 -0.02101819 -0.01779528 -0.126175 0.255948 -0.957924
0.007980546 -0.0230431 -0.01804168 0.0181089 0.0244871 -0.998883
-0.002589429 -0.0356888 -0.02008987 0.0655142 0.650033 -0.756036
-7.20221e-05 -0.004168103 -0.01660062 0.0313948 -0.063987 -0.997165
-0.003765518 -0.001705037 -0.01659244 -0.0365941 0.0624063 -0.997251
-0.001148744 -0.01531357 -0.01702437 -0.0175212 0.414154 -0.909906
0.002047125 0.001994096 -0.01668391 -0.0072678 0.064034 -0.99789
0.004039829 -0.00901917 -0.0167473 -0.0459605 0.0286989 -0.998327
0.01959611 -0.03082278 -0.02053499 -0.133546 0.346772 -0.923386
0.01493611 -0.03262692 -0.02026471 -0.136824 0.506254 -0.848214
0.01346141 -0.0185912 -0.01793627 -0.0654365 0.111371 -0.991345
0.01712717 -0.03105029 -0.01959496 -0.396282 0.641068 -0.65553
-0.005829022 0.00602459 -0.01671668 -0.0309365 0.0331296 -0.998906
0.005816767 -0.003494072 -0.01671384 -0.0170007 0.00666479 -0.999396
0.02128535 -0.01035528 -0.01800929 -0.0485659 0.0584693 -0.99653
0.02481716 -0.02490516 -0.01940258 -0.598075 0.56276 -0.569732
-0.01228424 0.01036587 -0.01738137 0.0243972 0.0410388 -0.998448
-0.02213276 0.004650859 -0.01788395 0.0991969 -0.274299 -0.951782
-0.02990678 -0.00342509 -0.01887495 -0.136934 -0.0587138 -0.979805
-0.03408308 -0.01114638 -0.01986259 0.530427 0.210322 -0.820547
-0.0150797 0.005683058 -0.01740307 0.356524 -0.233406 -0.904352
-0.002487687 -0.006089719 -0.01662746 0.019586 0.0334546 -0.999171
-0.01372756 -0.02052439 -0.01794018 -0.02203 0.029529 -0.99929
-0.01692539 -0.03118891 -0.0196153 0.385799 0.768077 -0.509609
0.009627523 0.01397839 -0.01744646 -0.0146856 -0.0130197 -0.998594
0.02274715 0.02811709 -0.02036254 -0.360856 -0.435074 -0.824161
0.0119804 0.01198163 -0.01743917 0.0378914 0.119406 -0.991519
0.01836053 0.01333669 -0.01794293 -0.159788 -0.117114 -0.979301
0.02443767 0.01566198 -0.01878476 -0.25774 -0.104437 -0.959437
0.0286546 0.02046369 -0.01957394 -0.484633 -0.343497 -0.80248
0.01619141 0.004325365 -0.01763402 0.0360727 -0.026714 -0.989323
0.01462024 0.01736816 -0.01790083 -0.0508625 -0.123127 -0.989687
0.02001619 0.02936195 -0.01995265 -0.31533 -0.605007 -0.726429
0.005800654 0.001266058 -0.0166719 -0.141527 -0.0223545 -0.989137
0.01596109 0.007065632 -0.01748415 0.106621 -0.0368903 -0.991826
0.01993257 0.01069755 -0.01795713 -0.335006 -0.0564117 -0.940207
0.01063711 0.021022 -0.01804375 -0.0426791 0.0563608 -0.996802
0.02459311 0.02515664 -0.019684 -0.440875 -0.553968 -0.705049
0.001952244 -0.007375208 -0.01664356 -0.0111201 0.076142 -0.996165
0.003785552 -0.02174605 -0.01770602 -0.13833 0.240261 -0.960087
0.0009680098 -0.03019278 -0.01887798 0.0342617 0.0572941 -0.996129
-0.005369935 -0.0298305 -0.018876 -0.0518291 0.0419975 -0.996074
0.007415901 -0.03428645 -0.0191585 -0.184779 0.809138 -0.557336
-0.008873627 0.01468525 -0.01752481 0.0159354 -0.0310725 -0.996905
-0.02444117 0.02639858 -0.02012842 0.291876 -0.469958 -0.832523
-0.01442378 0.008765185 -0.01734578 -0.00147571 0.0800227 -0.995864
-0.02176217 0.007575366 -0.01794899 0.0813637 -0.0559001 -0.993182
-0.02993695 0.01997411 -0.02012173 0.453197 -0.288571 -0.842972
-0.01759791 0.01491882 -0.0179951 0.144304 -0.0294122 -0.984519
-0.02584802 0.02412007 -0.0195537 0.499505 -0.605952 -0.618808
0.003608597 -0.01163867 -0.01682245 -0.0445762 0.0295025 -0.998216
0.0188667 -0.02333806 -0.01895287 -0.0959912 0.0567165 -0.993321
0.02200337 -0.02726519 -0.01934302 -0.565214 0.582017 -0.584067
-0.009676203 0.003646889 -0.01668607 -0.0153713 -0.0651754 -0.99727
-0.009504868 0.01147273 -0.01704651 0.195588 -0.406572 -0.890795
-0.0007493173 -0.008497903 -0.01668539 0.0393086 0.0141844 -0.998387
-0.01211806 -0.01300118 -0.01729353 -0.0368618 -0.0517171 -0.99748
-0.01203531 -0.009913144 -0.01711661 0.352092 0.167245 -0.919682
