0.10964512798710364 0.012110477517903666 0.15895884240340444 -0.40848794859442006 -0.8186579068981851 -0.4036543413939768 1.637889010847964
0.13143365640809215 0.013449311763639558 0.16057457091527463 -0.19292820484209894 -0.9619324548501882 -0.1935578985272774 1.5585691339723773
0.11777407189946837 0.02186467695827868 0.16169430990151737 0.520376349024594 -0.6628401220981568 0.5383785173209782 1.9327943910298842
0.11582786757102784 0.005021827183485934 0.15882063240717328 0.6974485685038992 0.09373702946601455 0.7104779121118046 3.316091301968512
0.10916991265333825 -0.0003181956948248992 0.1585657593273012 0.6530069873414922 0.17139593155164684 0.737702724090627 3.5291008434762494
0.11509531232488383 -0.002526556358385387 0.15890006063910123 0.6102859290995185 0.40561997008839396 0.6804583195234135 3.989336939480733
0.10494539244111045 0.01178371180251163 0.15791792612609845 0.6578142096236907 0.06852593184273563 0.7500564393978921 3.2897003842141115
0.10807124025602141 0.0034070490591161435 0.15904874026548455 0.6324154374736665 0.3297073089551482 0.7009592034252389 3.8317276963406073
0.1127427121087213 0.01347055161332555 0.15522384820116247 -0.13562284303435593 -0.9907604880637629 0.0003158147128834737 1.2216639226574177
0.09135540338377639 0.00015615902366331667 0.15971032143669373 -0.5943985684659422 -0.5388086617608754 -0.5969719991901572 1.9632214369227645
0.0882501140526534 0.013584980124528282 0.1570269557431932 0.1702857589829846 -0.9598490994909141 0.22291807125953253 1.4715141852984746
0.07043656413312911 0.0053456785365388745 0.15873547985435327 0.6135860452881706 0.5101146344979912 0.6027397653204936 4.1565664702281415
0.07569715753402124 0.0016063573843995082 0.1535873935382269 -0.3318090653362109 -0.876269690388317 -0.3493625249901209 1.3826255642933436
0.0737297141538169 0.004009465620027406 0.15287516061427103 -0.21476031115698974 -0.9384653019147365 -0.27048269048838475 1.2654671709496559
0.07460729528945383 0.008051819057041215 0.15315485744319918 -0.14537033092988816 -0.969785073107167 -0.19591931722998054 1.2459782449353112
0.07637693981810455 0.010527726400406176 0.1527251985589629 -0.14495480599052327 -0.9677762545187004 -0.2059058654094279 1.2394787362869775
0.07654067670325423 0.012226790127660987 0.1523941127961324 -0.2034391486356848 -0.9311822125580004 -0.30250983425002015 1.2507079335311277
0.0703454050750903 0.01924151509604714 0.14788371692665833 0.34359098015018863 -0.41977254565404204 0.8400810962487835 1.892577977934137
0.09752899661387626 0.022184334693786573 0.1594347101397023 0.5733555651945511 -0.4217918729913489 0.7023923488612948 2.211667250040653
0.10072963529279522 0.03722609010175995 0.1591722434338788 0.5571963058613919 -0.5116835965611348 0.6539970747218066 2.0716933708121417
0.10239466912118388 0.03233085405186605 0.1497834423533855 0.40166945937193893 -0.41633720852699363 0.8156745516465529 1.6929147899664483
0.0970583271817215 0.017073254768243236 0.1538787848739293 0.4737292411817724 -0.4443803355413771 0.7603332975961761 1.8793714258191077
0.1164577091390704 0.006408570200894747 0.15987197517868418 0.045101569036910025 -0.9885888841263993 0.14372844760912706 1.4186531250453025
0.10781393012628865 0.020655040363521143 0.16176508098776723 0.5293571578757377 -0.6338447369581919 0.5639342593211747 1.9371727324096322
0.10895848669930404 0.03344065509659866 0.15683753422515206 0.4881309109941466 -0.5883746335121411 0.6446266395142836 1.8162631086678254
0.09992514643570562 0.03364943419709952 0.1597416711034171 0.5979320888655897 -0.4303179087959801 0.6762423489210706 2.2100603540291797
0.10680647540770243 0.03690084681833362 0.15870783449808964 0.5249283362891992 -0.579187218055448 0.6236925590399841 1.9195299126749241
0.10306601314965928 0.027749659942469092 0.15169992712602903 0.5718084338214132 0.062238289487023965 0.8180229277547373 3.4807901508724393
0.101664373985203 0.026305063517735126 0.15461741554674593 0.5604413503756865 0.38366039520449463 0.7339687962990034 4.084065354504998
0.09552858343610407 0.027000858669330097 0.1520273348734719 -0.4846968642908604 -0.48010155817526884 -0.731143928090965 1.8582623103554845
0.09137681187271213 0.034772234488133096 0.14647122423573714 0.417645648446207 -0.008025798132235173 0.908574542290443 2.7454912649829475
0.09319530231903508 0.01859692236408682 0.15664000896774657 0.5846880724279057 -0.17500112518971833 0.7921581055211597 2.6423119846398135
0.08599144017940748 0.02741649840329462 0.1596783023796093 0.6614898011426485 -0.126366640490656 0.739231164897263 2.8375642297290633
0.0870563857349451 0.017928271806605816 0.15529890844516078 0.5859209469243022 0.4137956962891559 0.6967566043374843 4.102483282620575
0.08507153675895916 0.020198306776882228 0.15260033916684915 -0.4542354654875923 -0.6391548216241218 -0.6206055557984534 1.6257674829401452
0.07654035811484401 0.024645011847628365 0.14727675045394828 0.3940704661970741 0.07929772307006218 0.9156529576139227 3.0330758357350662
0.1014165548695323 0.0034194027969820903 0.15661329478167263 0.5493165695439844 0.3303790909376657 0.7675291282392028 3.751009567505104
0.09631787040019085 0.00652707290829795 0.15973170742618817 0.6248928495308045 0.3450975592546912 0.700297509064345 3.8023486758102343
0.08793048718361916 0.022170629603227764 0.15554284811445382 0.5794889138424316 -0.1279502506415023 0.8048734882542072 2.615725794167962
0.0767368260194155 0.01911431498881306 0.1598009527098298 0.637619948633351 -0.19693005641566785 0.7447545595596745 2.6454657878736354
0.07351073147764646 0.02716195195277654 0.15948432618308692 0.6192978890038653 -0.3321618164664162 0.711434222087388 2.4018573873970026
0.08060765007233173 0.021568617020533098 0.15061731560412622 0.18595952339983968 -0.981262140754499 0.05043477747350468 1.137615712306859
0.07449321254461326 0.014898521279162129 0.15577952449000165 -0.4152286033309763 -0.7485494483958878 -0.5169709182168944 1.599699391312993
0.07795119906943011 0.016107977913746144 0.15208935001926732 -0.35269325006521524 -0.7731805213759575 -0.5270667440877278 1.397888197064326
0.07944349714871145 0.019184401221564274 0.15387584875635255 -0.4230859914882544 -0.6887937934504847 -0.5886946185506472 1.5968888541788953
0.08086664578365718 0.036146144514120716 0.15231872915893208 0.3605144245372168 -0.778889214858933 0.5131870425848981 1.4744551621092705
0.08080974981566648 0.026912257874954534 0.15407590122210038 0.491957254543643 -0.41453584099225244 0.765596562319037 2.027985565951544
0.08684823415483457 0.02516958934722217 0.15692680788007626 0.5350277714124329 -0.41736933320459696 0.7345393954838608 2.1066448515667098
0.0915261837323651 0.025850264075874093 0.15918327169691615 0.4102999410897539 -0.762827595358313 0.49974795457470195 1.7159924955059198
0.08390912130004648 0.03455361647595231 0.15893757976735662 0.5556875177872527 -0.5091610001727419 0.657241552611013 2.077134947275234
0.09268759613809663 0.0337810702199055 0.1563511360555795 0.48915367950889743 -0.573704475002326 0.6569565078338232 1.819243841408703
0.09277742969180773 0.03468161393012812 0.15942517587313806 0.5027403102021895 -0.6417088900720347 0.5791907120287096 1.8710249057577601
0.09487201603288144 0.03766888689351886 0.15944621228965838 0.5301020165837593 -0.5922781020798648 0.6067936237391631 1.9504817449848144
0.09492008191637237 0.04138585149793182 0.1565837511497849 0.530052785404622 -0.48453518456004 0.6958948912071202 2.0201262690733266
0.1057628627231291 0.03084918393216576 0.15751058216683203 0.48266510210120017 -0.6014369031240075 0.6366380846087053 1.8025960920351822
0.10015870809686234 0.028671988071749265 0.1565095409693446 0.5030309576644041 -0.5012339970743054 0.7040769388413085 1.922981774197652
0.08975152792812585 0.013578188994763376 0.15945316310065982 0.6529462781911075 0.026336146379763933 0.7569462102357367 3.101129955606476
0.1066976937208688 0.019428378137011267 0.1609675134063321 0.35532311850560894 -0.8389792264633089 0.41213995076730503 1.6378290551843313
0.10951738380914196 0.0253017566190755 0.1562576107511934 0.442248187562816 -0.6234875736945039 0.64473233674599 1.7125927793592184
0.08612666780743457 0.02350248764495243 0.15819783739658685 0.5485710487537478 -0.4652714654418083 0.6946886121960295 2.068899158379783
0.08426620079067033 0.018555683840885937 0.15707932101182087 0.42558423537841367 -0.7337987680545348 0.5295445463783174 1.668346331143123
0.08128927240425289 0.014541302279824314 0.15546128168808745 0.09671150012030952 -0.9876506726786902 0.12326002799695375 1.393088833882361
0.06847500871938693 0.015044559079476414 0.15107520148569953 0.4306540475158668 -0.42229326055296945 0.7976249077415671 2.051921325946393
0.07961715645888437 0.0005751921009624586 0.1523683334526622 0.2568659833367501 -0.860545634338719 0.4398648404055683 1.3960210621506708
0.07118107296175559 -0.00372589030027957 0.14605922787597742 0.2647067685554038 -0.21389245354342218 0.9403086434773057 2.697253751563008
0.11064222834008568 0.018343383413058162 0.14870554766683516 0.4742829183020169 0.20241192371915803 0.8567876787998484 3.726029162614444
0.09553714174898428 0.024576717999875545 0.15158742737654013 -0.4558513591925126 -0.5121224125098289 -0.7279630299180391 1.863529539451605
0.08425149176312426 0.03287637536492886 0.14965661761977375 0.4725890898523922 -0.05925014079667317 0.8792889018792754 2.710087360822337
0.07816618907414893 0.004847124591529913 0.15144598689220573 0.2507471137080909 -0.8289851984523643 0.4999094175087682 1.406363249467
0.06751476550468082 0.013783524021271878 0.15520257424087894 0.47736904212146436 -0.6491379931615049 0.5922319338386688 1.8022482013858112
0.0648544887079716 -0.0005659928054640644 0.15127767382997498 0.46744856731946327 -0.1804432200943546 0.8654086209606199 2.7054577856560464
0.07971065558992385 -0.008132551594897659 0.15025423114329334 0.368192833719719 -0.6664667480989624 0.6482716335579071 1.5446283146501765
0.0736082619086435 -0.008881872201782267 0.15276392390722043 0.20049680262362984 -0.9205643755038242 0.3352048070821112 1.2640859225213417
0.07749741218324185 -0.016111595326180644 0.153324066040039 0.2537556644258381 -0.8896442542866198 0.3796592730154314 1.315619982652702
0.07927218406592827 -0.020393312553622568 0.15279526194058649 0.32233564700202766 -0.8035381048488243 0.5004260631978953 1.364933194756289
0.10341797067413402 -0.024928163945218396 0.1522658540419707 0.4857775969497991 -0.5115325234734496 0.7087697818971712 1.8484390786380773
0.1129649684716875 -0.025874309975145157 0.152133454847798 0.4878014252475524 -0.4373499657766186 0.7554963778613681 1.9516202198685197
0.11753352762085426 -0.055504727935356137 0.1843480250565369 0.1683641264933411 -0.15072685017151988 0.9741329157499536 1.8552896155685141
0.11499148832835925 -0.0590841052100503 0.18624780165998983 0.04732513235872801 -0.04326691680711628 0.9979420352692008 1.8277089793238084
0.11052575140705506 -0.06102412998817498 0.18626151962208204 0.0133556980459295 -0.012282129379198068 0.9998353737629103 1.7465511163991403
0.11023701743112031 -0.06223757889266033 0.1890523228014493 -0.007343818863849269 0.005982999652051866 0.9999551350133957 1.734567744703399
0.10659572223980593 -0.06258671144969676 0.18938125545213108 -0.0020576631697469985 0.0016675048816682406 0.9999964927187243 1.6839579555886088
0.10101935864681359 -0.06297253285726176 0.18935403689213687 -0.0011183462234575677 0.001021683652322471 0.9999988527314614 1.5975898514846345
0.09520138354698189 -0.062497728321302515 0.18992915273877178 0.0056437176711234376 -0.006505891463699521 0.9999629102257299 1.4875137368051274
0.09075776591120079 -0.0620346536774765 0.19105213592817122 0.0075119858475780855 -0.008669872589134542 0.9999341995241057 1.4451550029887883
0.09302508214168442 -0.06283573809089137 0.1928499643648565 -0.007243853421519499 0.007936627539718459 0.9999422665988789 1.4595061998041974
0.09777567630600122 -0.06341051992043197 0.19248637546644828 -0.012190961986780586 0.011935936399161408 0.9998544463411222 1.5656672616233414
0.10291391709860645 -0.06306653547491943 0.19170969285532957 -0.0035809401777791073 0.003493695419565724 0.9999874854015718 1.6248583062514201
0.10690936848455376 -0.06209070719560543 0.19157179397919902 0.013162774426315785 -0.011379419496878953 0.9998486136317417 1.6814368724311717
0.11159154218402155 -0.06234880901563403 0.19148502508662965 -0.01364479378224094 0.011183785746190635 0.9998443591574758 1.7323375085173878
0.11545691908261084 -0.06122569754643728 0.1899505841543622 -0.008195589480730016 0.006460285446669643 0.9999455470299424 1.8052863272181205
0.11993022407116899 -0.05947218081493219 0.18902538455952209 0.003287437798890918 -0.002093834215391337 0.9999924042766509 1.884815112483072
0.12382018777811657 -0.05815345708804548 0.19018200409403396 0.002335049314474237 -0.0015225058243207243 0.9999961147528094 1.950812278308635
0.12800502043906686 -0.056405562632803705 0.1908042056487576 0.0007999213392862177 -0.0005315163131450102 0.9999995388080235 2.0234079919952728
0.1313030355739899 -0.05452405533443084 0.19191673756480393 0.004911553835017166 -0.002809485868349705 0.999983991585906 2.0851098694097243
0.12727366110400762 -0.05648283082477678 0.19237137077700278 0.008670448673241645 -0.005406136135532666 0.9999477971433751 2.0315195508694446
0.12176213772092015 -0.05906232185664232 0.19191044626803366 0.0013202971876433837 -0.0006783548740022786 0.9999988983243937 1.9454010808825126
0.11751422109426406 -0.06065536030509767 0.19222522176563736 -0.005286215107522449 0.004143874145171591 0.9999774418640183 1.8737144603150542
0.11472467113638034 -0.05968541505099148 0.19445243669583745 0.04530926060785762 -0.0339167002514823 0.99839707949654 1.8624221207697325
0.11290072449258047 -0.06140036873552619 0.19337133519683913 0.00589912753607715 -0.003897711376790508 0.999975003757762 1.80623778184425
0.11797806988197586 -0.05826647369252523 0.19269158563581248 0.05777980940530928 -0.041903508682614624 0.997449542375539 1.862733338190573
0.12063901165795318 -0.055878094427779676 0.19233126501836423 0.10269933203028792 -0.07292437937268827 0.9920357262183862 1.9026196769387282
0.11285736454403787 -0.05112880567028171 0.20506551148770166 0.4980450797448424 0.8580484525368199 0.1253154086340632 0.8792056646723299
0.09996738856162882 -0.0290944025208998 0.2259302243497916 0.47506748998649556 0.6378080839140282 -0.6062274557060633 1.3297188344499744
0.08743467681089166 0.0047049063381412555 0.22594516627366215 0.45831421363438485 0.7323695295688414 -0.5035702073592218 1.6508986294064991
0.08656989865906045 0.019514808159859863 0.22768711879705983 0.5614900754244039 0.590756134751808 -0.579427376340643 2.0007462058207275
0.06190293733937035 0.04011692004849906 0.22773699547020296 0.37266015652194756 0.7999137730086221 -0.4703853351159538 1.396826898497452
0.07865851618696416 0.019127917696751658 0.228678677221202 -0.6234939046597092 -0.05535940832152449 0.7798658133053916 3.389084028924889
0.07764407505708976 0.006806589141393747 0.22923472958919802 -0.5027139259719207 0.631080850348992 0.5907754810050021 2.026763799719483
0.0774222766942529 0.0006482805427695118 0.22150375159843116 -0.424802346339644 0.2526580550828941 0.8693140248184554 2.4228881610233017
0.102288593521328 -0.00614272011442087 0.22635315528331088 -0.5263371522622231 -0.44420414299302663 0.7250185387259585 3.9382980864636044
0.10105116860420384 -0.016123463669459354 0.226864244903261 -0.6341721693771348 0.2722627884846822 0.7236702519753344 2.5791452957877268
0.11102414574580083 -0.005480991728694116 0.2274657812026325 -0.6704516451302699 -0.16295438294036227 0.7238373164065531 3.481207506065099
0.11471804026901268 -0.01640665111923509 0.22781405625484852 -0.6403207495266137 0.3639722870015171 0.6763974512226969 2.4185364982743502
0.11512253127672133 -0.023692111933410892 0.22985524422926862 -0.15519520406569845 0.9771310399654175 0.1453594832513791 1.4800271857731533
0.10756184296029113 -0.021139565280863002 0.22166488539389273 0.16083742298845252 0.8061594991317987 -0.5694191648741732 1.1402672581042665
0.10132541454932453 0.013483904670262122 0.22601569233598456 -0.6362078956692822 -0.22202473931290337 0.7388805915850686 3.884654878973914
0.10859503204638143 0.002831315393697992 0.2280275277407417 -0.6638626173883811 0.24117258401882197 0.7078998587031449 2.769696212000456
0.09806464102450997 0.007626463258260374 0.22822172297325669 -0.18559048606851228 0.9622440066415513 0.1991046035712562 1.58464443730008
0.09767506706074086 -0.005205676683361542 0.22801867456466443 -0.5254816602951519 0.651649207628282 0.5470121889783469 1.9578058582673372
0.09961423715145838 0.0059490006687162155 0.22795559634485998 0.4053656657719186 0.8103357772673097 -0.423124810302911 1.7419638704982918
0.10592965550861812 -0.0038760029843255567 0.22820371737798226 -0.5011439512387235 0.6988909257071436 0.5103001215961563 1.8939326943577635
0.09645744311346546 -0.015077142792249615 0.22800139326584973 -0.4111698039192284 0.8077794220736396 0.4224118814846478 1.7524169060094645
0.10400243347892826 -0.00710310498562696 0.22794250528660318 -0.6952810287684574 -0.003572623255957373 0.7187291057121218 3.150652996168206
0.09585681270354834 -0.01770369535382098 0.22823592954447988 -0.534223121880561 0.6460211511534408 0.5452176889193623 1.9878342965672031
0.09087078135800145 -0.006220882692946502 0.22791306356233618 0.18380626294131186 0.9612952113163776 -0.20524808014631923 1.5680850753466014
0.09422794954420231 -0.019295406510288587 0.2276444246701687 -0.5087366483017777 0.6711231986575165 0.5392408320021557 1.9080583181329605
0.08570109367111622 -0.053136018503487675 0.23045204413349166 -0.5256617877475056 0.5814216117150286 0.6209900114597618 1.9473380828235576
0.07576385946280861 -0.05669187133618859 0.22734974203710723 -0.4596769766231816 0.6366151289716011 0.6192077637813037 1.7112339458034622
0.0705826901848047 -0.05791880031049453 0.22273576433629105 -0.40328287163495374 0.6106088702626662 0.6815568450264554 1.5241954995618976
0.06589321323317028 -0.05724594819982305 0.21387757803423355 -0.2919806987201911 0.4764276329111192 0.8293153695510393 1.2385016342391824
0.05763459089174373 -0.05226310224156952 0.2177675302090134 -0.29089189947497407 0.7073476434561203 0.6442369239006058 1.168304167437603
0.05746465653315593 -0.05153419502792144 0.21722871025248813 -0.3138370420800368 0.6050994964331984 0.7316836136163931 1.2484160888302795
0.05910475762162713 -0.05057744348856115 0.20632414013555128 -0.13471767790515865 0.26154692241842475 0.9557428287114124 0.932603348403459
0.058721987933952426 -0.049142089606109725 0.19413013126701795 -0.03887330930458663 0.07402571995094066 0.9964983986988916 0.8800169256716529
0.06027241691514823 -0.048941190671074226 0.18695360543019615 -0.013766492462676342 0.026503009196996264 0.9995539376085609 0.8793597004848012
0.058056679591418935 -0.04708429701513449 0.1866622300595807 -0.014299529543378242 0.03098500002388704 0.9994175569942514 0.8446958905462459
0.05459976525363737 -0.043725400071434516 0.18669694186034635 -0.013330535087684251 0.03363922774653587 0.9993451351714746 0.7481363024695328
0.05211763166734835 -0.04166352372076595 0.18843493687342294 -0.018105935837374725 0.04775360048603594 0.9986950328944633 0.7272761213227598
0.05053922648460311 -0.039060873869848724 0.18832368064521288 -0.007647857265396318 0.020306082904337986 0.9997645589219145 0.716334175647709
0.04736569044148883 -0.03335200136029696 0.18434510092265707 -0.002838369243893368 0.007708791787598479 0.9999662585253619 0.5952985167854491
0.044110731720674236 -0.02746404691476991 0.18458385294506535 -0.0016117632448363983 0.005594856240384597 0.9999830497577907 0.47692681250511954
0.042324475695909865 -0.023022454594545785 0.18429296430962952 0.002469982009093077 -0.015362147317174741 0.999878944482121 0.3856632235074107
0.04040666235623946 -0.01888681905491969 0.18696100319032105 -0.0020905357039154642 0.017532362977151775 0.9998441108037334 0.30186164285705663
0.03980956859285613 -0.01468744365261843 0.18518985090194587 0.003808875092951364 -0.033921043732133324 0.9994172578371103 0.2481105769318033
0.0385912237053575 -0.01131001863377923 0.18648826959325424 -0.0012022163471454889 0.020027657214997524 0.9997987035510364 0.19116494497781053
0.03918289067282202 -0.014699486767421749 0.18857402772463133 0.001341916970264644 -0.009124287797539618 0.9999574724112184 0.22592298553702217
0.03976661603810881 -0.018523506987570493 0.18999165610767643 -0.009360771994405112 0.05888385732394822 0.9982209511397372 0.2862607214821255
0.04217925391435648 -0.024045865490776867 0.18795257574631125 0.0008173387767868929 -0.0008182620904257544 0.9999993312020141 0.37596900147875556
0.043764261862723225 -0.027722997735028544 0.18671122721812064 -0.004270550098135331 0.019145058281723637 0.9998075960629867 0.42855492729132316
0.04547461409574428 -0.03173140399407741 0.18748742961451104 -0.011122000967588008 0.03943188665283463 0.999160361208087 0.5206892554414424
0.04454076681691079 -0.028654787188441663 0.1887580497131625 0.00615827757982673 -0.037069965929935826 0.9992936971897717 0.42888788619821605
0.041479812413342504 -0.025333523295992387 0.19090210307602515 -0.02246138149936467 0.1076411905301641 0.993936044442694 0.41411358422239863
0.042877183595816576 -0.027806712348681227 0.19244611004764647 -0.015980601564777163 0.0720552916836669 0.9972726083243286 0.4419032489870874
0.04518109152323565 -0.03150457563793263 0.1914082805677614 -0.007485886819477581 0.030690091289794445 0.9995009153548334 0.5124087185018532
0.04826092361329611 -0.03710082926572764 0.19226159834628667 -0.023065623181288103 0.06688127601471643 0.9974942966984335 0.6339273566038625
0.05298643544354929 -0.037119954028696805 0.19265282504694037 0.08740696300739988 -0.26738784901157137 0.9596164655834059 0.657934788488769
0.05418640604897112 -0.04139386720397256 0.18884170424639174 0.020292262078938916 -0.06459411263065072 0.9977052794854693 0.7250699273964688
0.055941224384777354 -0.044811176358987764 0.19027508586394332 -0.0024870407514251403 0.0017411726267611896 0.9999953914624728 0.7541779570009701
0.05860335744205558 -0.047271376319754414 0.18933283504950174 -0.0019796788444086857 0.0031920491814482793 0.9999929458219675 0.8170398844571285
0.06234523246338339 -0.04903214491140244 0.18774013596986106 0.018069423445543954 -0.03792115368196876 0.9991173514856873 0.87199289669193
0.06739647667869153 -0.053064793299386924 0.1867931648420907 0.002421261401242722 -0.006122115046409924 0.9999783283654629 0.9984468753405387
0.07144621821254997 -0.05485857023115404 0.18775784482044372 0.017721227813963923 -0.029353311345650297 0.9994119977255681 1.0741091439314816
0.06943923083028884 -0.0542904919992033 0.18908867403314975 0.01007439828183785 -0.016923173002523207 0.9998060375466762 1.0624407686243558
0.07337790220495141 -0.0568352026137345 0.19061944508187356 0.0024294776656827682 -0.004195472850538769 0.9999882477538585 1.1164959501747538
0.07734502420610563 -0.05764944147602519 0.1884280279533754 0.018840283031344142 -0.027771294160203328 0.9994367408475466 1.1742470342224707
0.07804260010189451 -0.05852710302516097 0.19100172138064692 0.008712337233727658 -0.012693740331905535 0.9998814750440734 1.2095914292558698
0.07292438746924766 -0.05682326524617106 0.19229842191664487 -0.0005392366671619202 0.001355122552543172 0.9999989364327767 1.142125433494152
0.06742307987460798 -0.053841004795241156 0.19222421619051158 -0.0018390450192359807 0.003613699390802562 0.9999917795112768 1.0351704489031723
0.06394430495803341 -0.051645999236257935 0.1915124493818936 -0.003578747192079024 0.006840360457909967 0.9999702005746676 0.992862760009584
0.06092282778837879 -0.05012193727901485 0.19454134273693305 -0.01882770712138696 0.04061906065908688 0.998997301976199 0.9043482682621348
0.05631028320026697 -0.04380396328504404 0.19163271402329465 0.02298875751238607 -0.06890403971424672 0.9973583861075689 0.7540426804973176
0.05254823346675049 -0.04143874987518739 0.1914742426539399 -0.0035880629056397064 0.006178163155323882 0.9999744777266124 0.7452124849012317
0.05115817938368349 -0.04449523225565703 0.20227107135570596 -0.11972266467160823 0.30594057032509125 0.9444929067987158 0.7838808230860259
0.052850398819308454 -0.0422285738785243 0.1968353507869194 -0.014345249426384755 0.032555483441244024 0.9993669767992145 0.7172706559271769
0.04779513799150964 -0.03665777671329967 0.1947053503418509 -0.0287021707285637 0.0897226169370283 0.995553131382469 0.6285728274148363
0.04481515920944957 -0.03312565455626044 0.1956904759240791 -0.04165476321691677 0.15053813337863858 0.9877262531188576 0.5592818907049403
0.04586911035242854 -0.027834645135469776 0.19405287037270275 0.05774809533608001 -0.2501970119643352 0.9664712166894437 0.5108995999617788
0.042448662397573236 -0.026706611270443315 0.1939913703683813 -0.01198698288591015 0.0608695660849564 0.9980737488612361 0.4490880318748416
0.04058695196543885 -0.02312209160951616 0.1948284923769181 -0.024893936663437262 0.14007065974632768 0.9898285216115088 0.3821580017330032
0.03965345013944009 -0.01961741287629849 0.19703440223362434 -0.021485555230572388 0.14322826320708615 0.9894564343795615 0.303878585863394
0.039157283026077246 -0.016611434955975307 0.1929994704798821 -0.008878035455020718 0.06107589672232316 0.9980936405598542 0.25840921300820435
0.03838170316884795 -0.011088934985163244 0.18979927712926978 0.0008128099232964888 -0.03058580902944658 0.9995318142140561 0.18929494274329525
0.037877233466372985 -0.006842612686540771 0.18959489806408977 0.0033052194867065066 -0.06941312779040927 0.9975825245133845 0.12913142143558343
0.03757424536139048 -0.005546126674595518 0.19206638616725047 0.0027693395557373333 -0.06366969141862475 0.9979671844069232 0.09261858938469583
0.037234699939461595 -0.002091277100276976 0.192514336548954 0.0009331822149143273 0.03558911067880363 0.9993660712531948 0.04805426805672558
0.03672189380999959 0.0018902609024607647 0.19333617160711447 0.015832518908929158 0.9695432868705017 -0.24440774584563058 0.024711674243423937
0.03589559560565443 0.005921690629288494 0.195337776463909 0.0374375793215014 0.7818611884854536 -0.622327493844407 0.11428038584693712
0.04349716063249412 0.005454607752123762 0.2039085089724875 -0.250568080191954 0.03650527504031734 0.9674104620496665 2.073301461607387
0.0833848199087679 0.013516065019231312 0.22592172076658545 -0.5530244883723326 -0.2199124199185713 0.8036183440079484 3.2466377848451704
0.08398938706718069 0.013931404745364204 0.22287396565529408 -0.4954414372523093 0.07355375478267094 0.8655215926889038 2.618503448580854
0.10294451250036252 -0.023078165198986783 0.22587130721680423 -0.5816361225126725 0.3849054755710735 0.7166220732463027 2.2754040968431606
0.11214704250817437 -0.024398573629853704 0.22543974575928058 -0.5913816562286174 -0.14912322593012747 0.792483438416532 3.6018659960055643
0.10807355175521562 -0.0005491510294563027 0.22716000829162178 0.46065058609099774 0.6924134307619806 -0.5553059322881796 1.8601296018476587
0.11608132458855511 0.013249522724500992 0.22782869545502507 -0.6123531969951372 -0.45126449099534294 0.6491409102009739 4.023193236476771
0.11667138680770885 0.018091243627596575 0.2271370861921974 0.12328231557358116 0.9913367150123189 -0.04530991210982888 1.310005094735603
0.09158868528095682 0.00482517152038853 0.22700263835215972 -0.14049812230717731 0.9755195399656007 0.16918009567753634 1.4843862421414937
0.10169935712909571 0.0013540464293761846 0.22790013420497382 -0.6549533270307208 0.33480169449342745 0.6774540314853247 2.441475642706804
0.1138697077175922 -0.0067307330585870675 0.22808362667219573 -0.6761653653712184 0.2547936248406672 0.6912890910559489 2.6223285659558213
0.1092231892906243 -0.02112517229845536 0.22813732752694255 -0.5539328709913388 0.6076190818629061 0.5691725799714633 2.0207326258753775
0.13122701055662467 -0.046099875346616075 0.22923652787173163 -0.5761325023971972 0.3263918891784119 0.749359509421273 2.392856482540353
0.11743306086114604 -0.02144561160561932 0.22260495268635114 -0.25260111459243423 0.9658160937899558 0.05824044885619816 0.957339609007024
0.10435742248498474 0.007638708800036844 0.22587749003845492 0.6145541226028812 0.40517483752222794 -0.6768726478671149 2.013004264915508
0.11699290841920171 0.018499356690079082 0.227418607203851 -0.660392347942945 -0.27957836992514284 0.6969346324070893 3.8192257478742984
0.13703228310144908 0.043045571564797054 0.2266806899049971 -0.5308421193770785 -0.21141441221310217 0.8206769099979847 3.7984694982070617
0.14532701763836078 0.04726510689445916 0.21634311726923972 -0.3454598759350195 -0.1357512692519208 0.9285629041779847 3.845644565566066
0.14307190812033505 0.04287415070076836 0.2017133677580807 0.06864734119102037 0.037790294708444395 0.996924990244127 3.9586444417967996
0.14020504573884957 0.046267275272713994 0.1819211164278652 0.026557200641615663 0.014211953173627626 0.9995462648027212 3.9884229246111946
0.14201631746148846 0.04464175978378606 0.18349690104370955 0.024652515593375647 0.011722924257444155 0.9996273438245737 3.9901288330774887
0.14103743318829665 0.04637728212329106 0.18512879267543292 0.0038928131001073054 0.0019569160292567766 0.9999905081978637 3.983836951264684
0.13674922984720278 0.04950920617868519 0.18405046685988036 0.015868705896300454 0.008503532625107153 0.9998379239187072 4.087515052864515
0.1333357769739811 0.05285491765785155 0.18517527540715048 -0.011467048789884846 -0.0070865101457295325 0.9999091399552286 4.172442071363044
0.12928281719013046 0.054577410458999505 0.18480365722856654 -0.001266965457046643 -0.0008231084534632941 -0.9999988586448509 2.0447064625619005
0.12988266176188068 0.05426392630151458 0.1866291936088974 -0.005467668032129939 -0.003372605881659269 -0.999979364855024 2.042090489162586
0.1271645553041227 0.05550703629437174 0.18682338995261852 -0.009741126571855748 -0.006290233003584219 -0.9999327694509625 2.0023203749023777
0.12331364558515348 0.056629973589520724 0.18540523597652558 -0.020819714074712867 -0.014077809278335239 -0.9996841275081695 1.9625957362667967
0.12362437666544956 0.058177109285664316 0.18884590886303934 0.007764155190290371 0.005074303251720115 -0.9999569837451464 1.9675588644221358
0.12108151350751274 0.05831252953954047 0.18900621777302687 -0.01256944608279063 -0.008400272585969126 -0.9998857156923752 1.9667256346328745
0.11807387596514414 0.059054261422245055 0.1870335362034808 -0.011289464767810448 -0.008030779102921852 -0.9999040226803053 1.9021034240177068
0.11550195542019914 0.060474944527171844 0.18909105634770923 -0.0021951485508619685 -0.0014648987238592098 -0.999996517691221 1.850746264955867
0.11101555168808684 0.061397118191796086 0.18973264384698496 -0.0061540105108294245 -0.005044151958312204 -0.9999683418417076 1.774459772273778
0.10723350353582618 0.06199508030651081 0.19085904895044464 -0.008606938797440055 -0.007529118828459025 -0.9999346143494604 1.711887873385032
0.10372550909721373 0.062466580866647865 0.19010137023819648 -0.002014725475660861 -0.0017015686562520877 -0.9999965227666372 1.6607774721291844
0.10092008358950127 0.06332744685773516 0.19313786050423518 0.01707886618300144 0.017311419355834422 -0.9997042698167241 1.5945536535113736
0.09723524391863095 0.06272862197557354 0.19195446454091245 0.006108764286257849 0.006274414668092497 -0.9999616566246267 1.5246410948269289
0.09348981745267422 0.06288914732425313 0.19413093813003082 0.015074670488456171 0.01667720167787499 -0.9997472806934061 1.4806733919183965
0.08921235451795073 0.06154575817668081 0.1926849162093224 -0.0025148206623855814 -0.003622455562939337 -0.9999902766990939 1.4009655188557713
0.0854034340949178 0.06060200877875517 0.192068832504671 -0.0073090329904539845 -0.009483559949398342 -0.9999283174945246 1.3492029831302979
0.0812760997078908 0.05987401030521907 0.19182191394355888 0.004540600060469663 0.0064560107248785355 -0.999968850953174 1.2834005992881796
0.07707650468354382 0.05849731249921127 0.19069750832748542 0.004381915875575802 0.006459592810396174 -0.999969535772957 1.2150115140716766
0.07319051050158745 0.056691946270077155 0.19044864342696366 0.0018473109182838507 0.0028157064804806534 -0.9999943296036168 1.1433220720253017
0.06895864162978638 0.05465960568580069 0.1916568565448716 0.006563946655507346 0.011472151912048206 -0.99991264835225 1.0664882170160948
0.06518060562111203 0.05226305848513009 0.192138783085531 0.0022230717234094054 0.003935361842712184 -0.9999897853874705 1.0040745897964942
0.06082922823935895 0.04926629665704547 0.19270706802371365 0.009686564413868708 0.020668485719173107 -0.9997394581429365 0.9090372346179763
0.05758707169253465 0.04629036882452684 0.19273976657754663 0.004592207437851851 0.01010474510628812 -0.9999384009813728 0.8431829415631819
0.057880488296958923 0.0468966304576265 0.19675102432702699 0.01357399616163829 0.03060003012145242 -0.9994395353320629 0.8365429616524498
0.05359472402053964 0.04245583224231789 0.19281661492517518 0.004993702193504294 0.011558900038968301 -0.9999207242418229 0.7522540683799956
0.05441760953767233 0.04362665282858005 0.1946231561430847 0.012394698834798112 0.029573310522343167 -0.9994857631530045 0.77869023806065
0.06583736331720755 0.04451028514336353 0.19048573503199878 -0.21972148196421065 -0.389483396268843 -0.8944412526233004 1.0448809783191908
0.07074479629921564 0.052733888293301 0.19088556759890252 -0.06264666831636781 -0.11163834709011056 -0.9917722895946665 1.0550068420521341
0.06806517169982663 0.05610625058882996 0.1998958244623656 0.07413706080725417 0.1183537660574394 -0.990200021346638 1.0904226911025612
0.0739892982692233 0.05987002399104228 0.20180134539853736 0.10362218567425219 0.16055186217647016 -0.981572993815416 1.1476637086288042
0.07650918344413121 0.044093230962095935 0.21942000336348602 -0.6193244437985416 0.6129971079737455 0.4905831009415746 1.263138988375377
0.07709100212885543 0.05550421406347154 0.21830812950777678 -0.0075980267646016285 0.767479265025592 -0.6410287417464692 0.9028984315366091
0.07960349142907445 0.032345415946012715 0.2293396400526463 -0.3661272709794242 0.8995726772096907 0.23815923215980722 1.3338701602348604
0.0781170921948347 0.009956268144378949 0.22567715470970623 -0.5232871471046999 0.37308778632345174 0.7661436323374948 2.1182995002451226
0.10001990422083559 0.010113285540762098 0.2267936496571143 -0.6342001816211177 -0.20909696288420265 0.7443578371619016 3.459812577012873
0.10647030724261132 -0.0007387217448116717 0.22730960664113312 -0.6538493640358026 0.2581429151705109 0.7112265774682826 2.5777217624107407
0.10375207465304905 -0.014958225077099397 0.227726251012358 -0.5523031335203222 0.5971984378934329 0.581648755247767 2.025709509725593
0.1004161817825251 -0.006290471773386629 0.2281048342856309 0.2782411745041889 0.9169293543752499 -0.28604616392379173 1.616302702708668
0.0979161398566508 0.008118297088325455 0.22794501257821873 0.4913643046597698 0.7077900291073335 -0.5075375796948056 1.8759078325911165
0.11023943244938503 0.0092937324527347 0.22794434283383286 -0.6886697611909439 -0.14054671704005176 0.7113231195107268 3.431104109274414
0.10536260352646713 -0.002350063381575066 0.2280251879969297 -0.6011607294358716 0.5031699343936132 0.6208267024753827 2.1836462400289935
0.10057903297958408 -0.014809775703811435 0.2280661389784094 -0.5147507465257755 0.6736457902804424 0.5303140750428891 1.928798787210579
0.08625446644747184 -0.021613370299108568 0.22801365886992087 -0.2629003848482245 0.9258879219784704 0.2713207393124332 1.614894488780223
0.08792646375086288 -0.009497654788253365 0.22595320257520674 0.4112297080829353 0.7157837321318828 -0.5643968249426785 1.7342292848317935
0.10336592276584122 0.003946564617099862 0.22694764222236732 -0.6534247130359617 -0.20631331795143634 0.7283343732309636 3.6210288223640963
0.11717146715086532 -0.0020412708952514047 0.22794117626123694 -0.691344512641522 0.06142256117895818 0.7199097400498716 3.0414255685204514
0.10524660809163128 -0.0037237344158583233 0.22829653551325949 -0.35934783051657204 0.8549597749196138 0.37404935499534864 1.7083371528357563
0.09235249370992145 0.00337679356932041 0.227906824003532 0.14608194766856064 0.9774576075288121 -0.1524358555242526 1.5578993079988086
0.0821629538151459 -0.004271259918196724 0.22821886906624764 -0.2452215080672162 0.9376623429013949 0.24628386606902833 1.6170495723739657
0.08788724295094122 -0.016198097702939108 0.22775535551274032 -0.5885018820754812 0.5108573945696183 0.6266500276926172 2.1597702272513417
0.09489568256290354 -0.013484773580716104 0.2270501583491073 -0.6581557050860494 -0.09317820380513177 0.7470936288032008 3.4032208443727217
0.09505195405895801 0.008046695593919581 0.2277665946025388 -0.6029456732854319 -0.47682759205124814 0.6396029725736003 4.061344935681293
0.10666616402729028 0.011453865903634165 0.2280243112540038 -0.6876002161588084 -0.16772535208986628 0.7064518023224869 3.4846417923588815
0.11091163339644895 -0.0016788350132896103 0.2280251623246957 -0.6610706524373243 0.30986153111148906 0.6833530742034706 2.5191309958758854
0.09910097402462095 0.0019966138745409466 0.2283073056150451 -0.16318926253153054 0.9715511032332395 0.17163250974302816 1.5841608312173678
0.09278256647157676 -0.00927667344965235 0.22826699208663206 -0.4074615689952136 0.8133601629215467 0.4152352527955615 1.7612343095066973
0.09910470366045697 0.002045298587506663 0.22822192043240605 0.5057449159335703 0.6891236154258936 -0.5189708302686106 1.9156807630175745
0.09085966038912767 -0.005477697278063797 0.2274560564594316 -0.1442776026811465 0.9748716621150503 0.1697327775346299 1.5255093630510856
0.10160311928703732 -0.012834977826253216 0.22793853949558576 -0.6589476225132128 0.3306022882993728 0.6756405536640046 2.469246025585398
0.09265945399592974 -0.007441849972054171 0.22823163893073045 -0.117871233566169 0.9851950227623592 0.12448750709153163 1.5657759070550057
0.07788286202823277 -0.007160440837856692 0.22827964748278426 -0.011210257644548876 0.9998552021694257 0.012802531713683797 1.556726927242131
0.0803528273822234 -0.011915153918341068 0.22243385616704786 -0.27020896576298614 -0.4020735273772792 0.874827979321472 4.1394279789373805
0.10565490909879614 0.010810723125142295 0.2269618676048602 0.2261332621055757 0.8629853133179943 -0.4517965214196919 1.6442372567196288
0.09634264218387155 0.003975607500056368 0.22819887387854834 -0.22481494559314238 0.9605869604770584 0.16349596814416817 1.5776567155605914
0.08071447431821424 -0.001360390161858984 0.2281747129489316 -0.17747607904241183 0.9704464669210012 0.163511150103831 1.581290038179015
0.07283261589090706 -0.013755894946208108 0.22841820784454955 -0.39466834497631115 0.828974229565721 0.3962809914562881 1.7397328508872614
0.08166422641033107 -0.01764568326565187 0.222201535307515 -0.3901720523796612 0.23176595888244475 0.8910950060712628 2.784999622131793
0.11014393504934676 -0.0026229305626678506 0.22830672475700728 0.004642129669167514 0.9538298345094084 0.30031166715911817 1.612463810150599
0.09521697634164043 -0.0023466367468813697 0.22811025890167191 0.0821076287857654 0.9965698400537094 0.010338819589437487 1.5400246803767241
0.07929643884411465 -0.00637562109806008 0.2279953943119421 -0.05608220590835275 0.9950662767527582 0.08184064424145467 1.5494464098978868
0.058962879699303396 -0.016561014169628595 0.22758796307697865 -0.1695841969408619 0.9638233735426044 0.20563488215980297 1.4847951206282564
0.05318241524779137 -0.012577585253572174 0.21244382698533004 -0.11530389503516347 0.24909165797803431 0.9615915753143192 0.28622311578464044
0.038154738339575854 -0.013840336480322853 0.19416389327679628 -0.05089447700218904 0.1408084194952384 0.988727839807258 0.22679904426713268
0.03718246194940082 -0.010018478992517826 0.1943980286902307 -0.035543778920857375 0.2690604987513127 0.9624671879039409 0.1638926564251706
0.04354383540237251 -0.005658320179155611 0.20159088321831217 -0.22561967273709818 -0.00021104105492280087 0.9742154375371382 2.2844442384548715
0.05303767117997976 -0.006021286937575409 0.21173446097440693 -0.54207804317901 0.09656859666298913 0.8347609844990098 2.644886394683579
0.04569599121287499 -0.009966034776110076 0.228496381925563 -0.341484534184048 0.7864711663910491 0.5146371705858475 1.5511397418408621
0.07158443231129992 -0.020989791278834737 0.22954337710829611 -0.6166343707050476 0.3618203667036116 0.6991767123579375 2.321922314412496
0.08149944027869424 -0.013582727816482941 0.2216456399440599 -0.4446137057793137 0.015561253518799313 0.8955872375274838 3.387352717167122
0.10881535940886113 0.02327729380142238 0.22552101873432998 -0.5544861218079705 -0.39844482228208616 0.7306071887950142 4.001342374458881
0.11754078314757947 0.020952604820543418 0.22708916807805724 -0.6104375293588256 0.2435508943636633 0.7536902444671504 2.5726367343234395
0.10851896344326131 0.02155416075970067 0.23008684778697894 -0.22350676827438457 0.9287220769401616 0.2958378412906186 1.5439074993890536
0.11421428400059538 0.05399820506926011 0.22993900404450973 0.4428588982505084 0.7255476796030045 -0.5267414554248049 1.7401203123627813
0.11376473693766147 0.06166174687871549 0.2206640705968901 0.35935877676512773 0.3965823626349645 -0.8447388349121524 1.818333444695066
0.1233685191510832 0.062259526776287266 0.2193911484533875 0.42144045402282215 0.3212908044622335 -0.8480331141418054 2.0352396689284644
0.13263998847072375 0.05629486871921345 0.2096862960780005 -0.18470414113329764 -0.1291565159158796 0.974270483307732 4.180611949554015
0.12847793973921753 0.05075150108652369 0.19505240988321085 0.16090669507443603 0.07994461473235112 0.9837265341829093 4.14988545270523
0.13620678978912124 0.04895694281658256 0.1856063931372414 0.04492159278441043 0.02224196759830756 0.9987428825173512 4.079167566209708
0.13522428072266043 0.051227057281148576 0.18823064379907586 0.004899763624938425 0.0020917616965568826 0.9999858083240104 4.1042996775711895
0.13636525283952405 0.05073190379804254 0.19039669212578292 0.0035000522208981557 0.0016708951722862826 0.9999924788436032 4.095200113241967
0.131056882132945 0.054370254194190844 0.18972690127921732 0.0018941277941121964 0.0013241865878656585 -0.9999973294013239 2.092634072615023
0.13171332112239223 0.05386645340404215 0.1917642689072679 0.0027849904512297955 0.0014971423588381425 0.9999950011839779 4.175116546210887
0.12845259565774528 0.05542630970112259 0.1922023475988673 -0.00827908722454911 -0.005172916996712904 -0.9999523476868651 2.0380109727385154
0.12392823775815597 0.057407518668684994 0.19173870826789588 -0.01157692897804418 -0.007758318668197535 -0.9999028868879618 1.9708006607247328
0.11963291438861368 0.059353179958825796 0.19204304355162094 -0.0028895727678748036 -0.001881662605714274 -0.9999940548398562 1.9137092865316776
0.11420167424102981 0.061127614804954274 0.19203950191643296 0.0012804344671373034 0.001212198611471502 -0.9999984455298426 1.8215966242589092
0.10952412668909227 0.0637699035993379 0.19560570447914602 0.04635401157624012 0.03982697105006943 -0.9981308120621097 1.7561828660338314
0.10564765251803092 0.060002143474282774 0.19398564085469683 -0.07621313874165386 -0.06578662264689378 -0.9949189302470131 1.7337727288945928
0.11828430150002156 0.06454339855228287 0.2153250518043318 -0.4806719460937421 -0.0692830297326556 0.8741592200677852 3.808334562534101
0.11813040148553512 0.05390810082310016 0.21104048681600082 0.02766147295832362 -0.07858078586255711 -0.9965239099023158 2.061145123889593
0.1183678258818291 0.05340986267221443 0.19895498532856698 -0.09843941346361978 0.16312529476040363 0.9816821380091776 2.1350193512192526
0.11927379735068942 0.044945518495969033 0.2133856987580149 -0.48931758348861043 0.34918743731673463 0.79914731815169 2.2373298042949177
0.12276643701733526 0.051433307174930186 0.22784738593022477 -0.5770896181200209 -0.1407395784145022 0.8044625185338324 3.473644049535758
0.11886087203700099 0.02645654196639469 0.2213699478381239 -0.4109625513775413 0.1480759236435063 0.8995461645754398 1.8701638431795993
0.09374174610859419 0.000399158904174646 0.22556686073116908 0.1793646157638594 0.9790106458794727 0.09678062753744127 1.2818753665439169
0.09225471879185325 -0.013871134739754988 0.22664676257579194 -0.4903298190134883 0.6631936600674967 0.5654651517401205 1.8454415403448363
0.0930854999510436 -0.0043890825973562 0.22774877396308768 0.40376617263716896 0.8261409582478217 -0.3930190770678987 1.68142943537476
0.09177696760322214 0.010461602416711263 0.22821747144870375 0.5705091397074048 0.5911730392159105 -0.5701173205705475 2.0472684412350093
0.09264825621514923 -0.0031390423255273758 0.2282137681453235 -0.6814168682085702 0.21511370233781238 0.6995692580347876 2.7005517326206876
0.08899468499453442 0.007952904165153958 0.22802467286887157 -0.6540408297852311 -0.32790668425164904 0.6816947993031306 3.805681968251472
0.09486477924958786 -0.004639974265717736 0.22822470671999356 -0.6789197055280647 0.23417103794126737 0.6958677736719785 2.679554930426013
0.1079984445349316 -0.012237618715160933 0.22787794888617893 -0.6700677581431608 0.2582393246680934 0.6959322170240186 2.6196012743027484
0.11544542848054047 -0.00221163933954813 0.22783777892383092 -0.6744435737898448 -0.20939357870823708 0.7080114370328631 3.5802972191883553
0.10726619152209968 0.009739837770811137 0.2274125295616195 0.500816536684561 0.6791789070122298 -0.5365620270322476 1.8684526250682705
0.11454245716996181 0.00917481768966438 0.22803445813234124 -0.6953433520309447 -0.010846341942827945 0.7185958388780366 3.19383887852001
0.11219876100410053 -0.0044138396358027274 0.2279624736144346 -0.5976815134240464 0.506052611861176 0.6218420720244194 2.176806136023234
0.10384018459135434 0.003741379795434166 0.22830182426134163 0.04820619054558698 0.9977981001856228 -0.04555342422962779 1.5438454556037344
0.08958950482368266 0.0036477057892626953 0.22810023844811833 -0.05699746487489596 0.9966303231483311 0.05898548956385883 1.5531111973852014
0.08579233433317952 0.015843713669301207 0.2283128351037442 0.4546127277667645 0.7634869575292825 -0.4587100755762199 1.82358727322891
0.06823966307527272 0.029919325393358318 0.22796771013236866 0.3268093490112841 0.876343124780391 -0.35386208761177057 1.6048575183916112
0.05972869432212624 0.037700103174102634 0.23030270273014047 0.3295081746932769 0.8648879910900192 -0.3786728478232569 1.572007059601114
0.05589001660759767 0.036942789168816555 0.22965470332668275 0.31272882999460594 0.8721556460002429 -0.37622494340501117 1.5199298382519482
0.05328701192117755 0.03285520652955216 0.23102541490650666 0.2706865286854242 0.9145740440206506 -0.30047149813576013 1.5627071755548008
0.05039960953181361 0.02349929146678496 0.23080629014812964 0.11491881955133523 0.9851107385461493 -0.12786906472633675 1.4771545367092265
0.0755623294473351 0.007048381091796032 0.2252646437309134 -0.45860601618271424 0.4590334313816955 0.7609000136647169 2.100553285710866
0.10131797806038326 -0.012923960089959743 0.22674540276672356 -0.5932987412210484 0.42189708670426046 0.6855650602940445 2.2773128940707807
0.09212837023701213 -0.004492236952794935 0.22786277094805227 0.04016967986003395 0.9991924832182072 0.0008822132255167059 1.5245651892515588
0.09895336748410315 0.006554151743476305 0.22818023972180027 -0.6292776204434121 -0.4470686777678306 0.6357194929904229 4.011870263448156
0.10511101955729135 -0.005064351096784972 0.22792056249769468 -0.6721909297825727 0.2530663872509021 0.6957849937745259 2.6225694517119504
0.1004626089399905 -0.02119781932777407 0.22801328854933214 -0.5331307860649687 0.6421122857592272 0.5508751014765587 1.969124716500532
0.09793966736944748 -0.02238351765294706 0.2233184358011046 0.14380805302771554 0.763277968673156 -0.6298618788453215 1.3856235730226905
0.10228517265073224 -0.006516903311679703 0.22760071246500027 -0.44431355471934525 0.8372336296130118 0.31878725592106294 1.6076257919896704
