0.001911338 0.04654568 0.02035167 0.254559 0.965333 -0.0574508
0.0142087 0.04090392 0.003690646 0.44716 0.892131 -0.0533645
0.04666436 0.04750505 0.01809071 -0.860591 -0.504054 -0.0609016
0.01333465 0.04066722 -0.005849159 0.339464 0.939415 -0.0418395
0.01797245 0.03729787 -0.01791169 0.541241 0.838888 -0.0576027
0.01717448 0.03688267 -0.0303559 0.522835 0.849312 -0.0701255
0.01446132 0.0369455 -0.04888083 0.467104 0.881601 -0.0676678
0.01931617 0.03501053 -0.0365153 0.552453 0.831281 -0.0610497
0.02596917 0.02996359 -0.03539415 0.669538 0.739562 -0.0689507
0.02482541 0.03157751 -0.02801425 0.644809 0.762129 -0.0571929
0.05592167 0.05174436 0.02703122 0.109918 -0.989966 0.0758214
0.05515943 0.04162544 0.02592333 -0.0105812 -0.999378 0.0031988
0.03909348 0.01653238 -0.007658133 0.859531 0.50769 -0.0586819
0.03741071 0.01733051 -0.02517583 0.845991 0.529243 -0.062761
0.05653369 0.04720309 0.0315786 0.751494 0.659427 -0.0137127
0.06478924 0.05725162 0.04829066 0.718821 0.68697 0.104839
0.05809095 0.06025783 0.04363552 -0.45014 -0.88359 -0.127704
0.05607788 0.05480532 0.03475208 -0.710597 0.703408 0.0128375
0.05419052 0.06569027 0.04998112 -0.851247 0.485273 -0.00596851
-0.01031677 0.04930766 0.03329394 0.0629603 0.996305 -0.057873
-0.005840201 0.04849619 0.02729973 0.133339 0.989194 -0.0604553
0.003151511 0.04662348 0.0268314 0.266962 0.961318 -0.0677267
0.04857171 0.05562834 0.03839168 0.751313 0.659922 0.00394008
0.05894397 0.06185478 0.05372159 0.661444 0.716496 0.221392
0.05395353 0.0646891 0.05755085 0.423496 0.848616 0.311792
0.05312988 0.06219536 0.06357455 0.597421 0.654312 0.462492
0.05787503 0.05597368 0.06579079 0.61 0.601097 0.515067
0.06510701 0.05371876 0.05794423 0.730392 0.604071 0.318244
0.06850402 0.05058513 0.0525342 0.601996 -0.722685 -0.0210156
0.05830909 0.04269319 0.04614534 0.314253 -0.893747 -0.00287802
0.04939401 -0.01424453 0.03122911 0.998071 -0.0218524 -0.0580282
0.04899614 -0.01581189 0.02489685 0.997439 -0.0420231 -0.0571757
0.04849502 -0.01744168 0.01736637 0.995673 -0.073619 -0.0563176
0.04738477 -0.02481166 0.01508059 0.980642 -0.18853 -0.0501672
0.04823034 -0.02234483 0.0227499 0.986727 -0.152134 -0.055667
0.04618556 -0.03095324 0.02171036 0.953717 -0.296611 -0.0489089
0.04399351 -0.03661548 0.01889226 0.918922 -0.391903 -0.0445574
0.04040984 -0.04389592 0.01956336 0.865134 -0.499465 -0.0448819
0.04363842 -0.03822231 0.02552146 0.909781 -0.412529 -0.0447355
0.04615029 -0.03215391 0.02856144 0.946216 -0.319334 -0.051888
0.04436177 -0.0374203 0.03290682 0.916583 -0.397922 -0.0390467
0.0409978 -0.04387392 0.03056973 0.86343 -0.502521 -0.043426
0.03816508 -0.04793233 0.02560734 0.821385 -0.568388 -0.0461452
0.0349018 -0.05192468 0.02093985 0.773047 -0.632473 -0.048357
0.03237566 -0.05442447 0.01480728 0.736825 -0.674473 -0.0462456
0.03023852 -0.05704593 0.02134426 0.698963 -0.713758 -0.0435685
0.0335553 -0.05404291 0.02878661 0.746188 -0.664153 -0.0451876
0.0260653 -0.06121625 0.02895543 0.625965 -0.778492 -0.0453111
0.02719981 -0.06068622 0.03673063 0.641863 -0.766111 -0.030712
0.0215522 -0.06488419 0.03548401 0.561527 -0.826465 -0.0395042
0.01608844 -0.06806388 0.03371105 0.46673 -0.883426 -0.0406814
0.008358955 -0.07131577 0.02940642 0.347731 -0.93639 -0.0460874
-0.0002620795 -0.07380146 0.02864292 0.208106 -0.977037 -0.0441474
-0.007005008 -0.07487883 0.02876128 0.0954742 -0.994311 -0.0470219
-0.003764886 -0.07471022 0.03444481 0.153188 -0.987223 -0.0430498
0.003663922 -0.07307292 0.03405261 0.272162 -0.961345 -0.0409347
0.0112476 -0.07055467 0.03766661 0.394317 -0.918561 -0.0264831
0.006281973 -0.0725069 0.04139164 0.314772 -0.948853 -0.0235798
-0.001554382 -0.07452454 0.0415934 0.184986 -0.982598 -0.014837
-0.009881968 -0.07545733 0.03785671 0.0600785 -0.997826 -0.0265628
-0.01484838 -0.07537325 0.03302063 -0.0245969 -0.998551 -0.0472826
-0.02181895 -0.07480858 0.03325552 -0.136221 -0.989873 -0.0395324
-0.02915797 -0.07336326 0.03364907 -0.251367 -0.967373 -0.031665
-0.03547387 -0.07102913 0.02555304 -0.386483 -0.920851 -0.050324
-0.04306553 -0.06793097 0.03183831 -0.474816 -0.879746 -0.0198861
-0.03744055 -0.07069508 0.03717965 -0.334628 -0.940772 -0.0403117
-0.04418083 -0.06757489 0.03962063 -0.481887 -0.875642 -0.0291517
-0.0648328 -0.07386336 0.06865212 0.25406 -0.834503 -0.486706
-0.02634328 -0.07421612 0.03962811 -0.198486 -0.979954 -0.0165435
-0.01817735 -0.07538326 0.03908974 -0.0809828 -0.996509 -0.0196496
-0.01853302 -0.07546596 0.04576648 -0.0942181 -0.995397 -0.0162825
-0.01337085 -0.07576957 0.04982437 -0.000721294 -0.999798 -0.0144381
-0.007097264 -0.07539108 0.0457596 0.0969284 -0.995128 -0.0156819
7.252774e-05 -0.07431899 0.04823486 0.210807 -0.977374 -0.0153524
0.006829605 -0.0724801 0.04926405 0.316161 -0.948462 -0.0190273
0.01501793 -0.06896523 0.04421226 0.439985 -0.897684 -0.0185407
0.02101721 -0.06546984 0.04262875 0.551953 -0.833451 -0.0257721
0.02469172 -0.0630189 0.04780018 0.593827 -0.804114 -0.0238733
0.03227254 -0.05590734 0.03660162 0.722979 -0.690166 -0.0297876
0.03231585 -0.05609078 0.04355048 0.718461 -0.69353 -0.0495881
0.0386323 -0.04800259 0.03545561 0.822659 -0.567217 -0.0373879
0.04124483 -0.04418359 0.04202604 0.865107 -0.501119 -0.0187076
0.04441142 -0.03798342 0.0415069 0.910123 -0.413684 -0.0230927
0.04797047 -0.02705619 0.03651012 0.971973 -0.232483 -0.0337615
0.04836579 -0.02372511 0.02983978 0.982906 -0.177071 -0.0494542
0.04913816 -0.02043118 0.03551054 0.991327 -0.124673 -0.0405803
0.04873275 -0.00920939 0.02105236 0.996719 0.0591192 -0.0549654
0.04783807 -0.001420298 0.02254297 0.980679 0.185339 -0.0623263
0.04616428 0.004778374 0.02066378 0.953649 0.294657 -0.0608953
0.05795722 0.04252335 0.03732095 0.543119 -0.827115 -0.0209368
0.04947401 -0.008411748 0.03538281 0.996216 0.0687235 -0.0531728
0.04854586 -0.001576257 0.03412853 0.981212 0.186156 -0.050465
0.04691079 0.003702882 0.02713129 0.960386 0.272057 -0.060217
0.04969441 0.04381968 0.02328639 -0.641172 -0.766395 -0.0153725
0.0444719 0.008588103 0.0149682 0.928615 0.365277 -0.0647564
0.05050034 0.0435079 0.03105933 -0.577284 -0.812685 0.0531531
0.04268021 0.01185182 0.009073052 0.903767 0.42315 -0.0641206
0.05651397 0.04728314 0.04184308 0.726757 0.686672 0.0173247
0.05652359 0.05532943 0.04820205 -0.703659 0.710515 -0.00390805
0.04591797 0.05626403 0.04534268 -0.887578 0.44544 0.0142743
-0.01723478 0.04943558 0.03447107 -0.0421853 0.997498 -0.0558826
-0.02407111 0.0487449 0.03427616 -0.152546 0.986577 -0.0579611
-0.03197013 0.0468468 0.03206461 -0.282708 0.957541 -0.0562323
-0.04228794 0.04248418 0.02815085 -0.452166 0.889496 -0.065483
-0.04502479 0.04143598 0.0342544 -0.493373 0.867875 -0.0573625
-0.03872918 0.04460568 0.03541476 -0.390011 0.919645 -0.04592
-0.04250929 0.04310994 0.04128807 -0.449541 0.892478 -0.0360179
-0.03510051 0.04626179 0.0409908 -0.334721 0.941758 -0.0307909
-0.03232279 0.04738862 0.04711448 -0.290711 0.956141 -0.0354941
-0.02569259 0.04884691 0.04325074 -0.175399 0.983858 -0.0346363
-0.01893978 0.04970733 0.04347933 -0.0730962 0.996562 -0.0367635
-0.0130562 0.04975033 0.04049469 0.0167868 0.999097 -0.0380134
-0.005698784 0.0491892 0.04056012 0.137555 0.989902 -0.0337729
0.001222785 0.04752904 0.03306184 0.235622 0.970213 -0.0559852
0.009990133 0.04394231 0.02188876 0.377557 0.923876 -0.0621659
0.04570323 0.04898251 0.02688945 -0.915046 -0.397607 0.0152272
0.01415058 0.04181318 0.01655819 0.379263 0.923074 -0.0636276
0.04612035 0.04882102 0.03357513 -0.881541 -0.463289 0.0836543
0.003532502 0.04723407 0.03950042 0.267637 0.962759 -0.0375594
0.009975621 0.04486804 0.0359911 0.367597 0.928327 -0.055416
0.04522743 0.05470662 0.05239879 -0.946167 -0.211996 -0.23812
-0.0132508 0.05000349 0.04746532 0.0165849 0.999188 -0.0354142
-0.006544488 0.04960544 0.04883223 0.122378 0.991873 -0.0343782
-0.0005729537 0.04845008 0.04446025 0.218858 0.975071 -0.0362866
0.009081965 0.04550675 0.04302453 0.357453 0.933288 -0.0343357
0.04881706 0.04958279 0.04404733 -0.70161 -0.523908 0.476132
-0.004774236 0.04960986 0.05529267 0.146475 0.988316 -0.0414567
0.002898419 0.04784635 0.05117076 0.25944 0.96503 -0.0374638
0.01528453 0.04263739 0.03915364 0.448443 0.89341 -0.0232143
0.0599792 0.05531786 0.05416758 0.390367 -0.905589 -0.0822048
0.05004659 0.04477359 0.0377396 -0.657113 -0.73389 0.168073
0.01809986 0.04086167 0.03293052 0.464043 0.885135 -0.0335282
0.05428808 0.04973325 0.05055217 0.850351 -0.518499 0.0737929
0.05743501 0.04193627 0.05343169 0.230685 -0.933372 -0.23912
0.04473554 0.0098284 0.0262146 0.924011 0.376642 -0.0652772
0.04135866 0.01565911 0.01690691 0.877138 0.474925 -0.0694382
0.04062438 0.01477955 0.000207957 0.888709 0.453207 -0.0690433
0.03681163 0.01905356 -0.01752551 0.831006 0.553541 -0.0537776
0.03972369 0.01252439 -0.03023424 0.886221 0.45839 -0.0636197
0.03926285 0.01231616 -0.03807896 0.887234 0.456277 -0.0661824
0.04094774 0.007690524 -0.04361556 0.925714 0.372359 -0.0654193
0.0345301 0.02010489 -0.03976097 0.816448 0.575338 -0.0485925
0.0363509 0.0181134 -0.03309787 0.8364 0.544719 -0.059903
0.03063526 0.02532373 -0.03543852 0.755037 0.652757 -0.0616357
0.03075515 0.02596574 -0.02658884 0.7439 0.66577 -0.0579156
0.03088634 0.02667587 -0.01722602 0.743602 0.665729 -0.0619298
0.03046795 0.02782418 -0.009623082 0.731978 0.678417 -0.0628276
0.03515907 0.02232698 -0.009025592 0.800268 0.59623 -0.0633514
0.02346613 0.03354175 -0.01692693 0.613614 0.787095 -0.0621484
0.02035363 0.0352881 -0.02412035 0.568392 0.820409 -0.061741
0.02591364 0.03227277 -0.008203913 0.665471 0.743622 -0.0640168
0.02091798 0.0359491 -0.01006447 0.568582 0.820456 -0.0591987
0.01933069 0.03753127 -0.00259879 0.534467 0.843159 -0.05823
0.02444046 0.03417416 0.0002774619 0.644815 0.762315 -0.0545111
0.05586815 0.0547838 0.0594262 -0.703464 0.710339 -0.0200667
0.01701783 0.04095642 0.02611905 0.457356 0.887394 -0.057873
0.01863217 0.03877997 0.008850331 0.522789 0.849941 -0.0647452
0.02588727 0.03349118 0.007128356 0.634934 0.769894 -0.0631254
0.02362099 0.03573315 0.01295463 0.601715 0.796255 -0.0625647
0.05154209 0.04534904 0.05519077 -0.675694 -0.619734 -0.397815
0.03070311 0.02823311 -0.002543866 0.730596 0.679967 -0.0603781
0.06152019 0.04912021 0.06500494 -0.635615 -0.596585 -0.48988
0.0465387 0.04931103 0.05715077 -0.6697 -0.55643 -0.491346
0.03166922 0.02789949 0.005462768 0.735206 0.674621 -0.0659508
0.05057768 0.05887575 0.06965328 0.49824 0.555557 0.665571
0.04468401 0.05790947 0.07213888 -0.773371 0.115901 -0.610009
0.04059397 0.04983558 0.06236585 -0.583247 -0.211376 -0.782094
0.02125188 0.03785529 0.0187686 0.551928 0.831733 -0.0594729
0.02386662 0.03672988 0.02768786 0.596711 0.8002 -0.0596423
0.0509418 0.04662217 0.06199305 0.678038 -0.734985 -0.000204986
0.05551651 0.04088499 0.06011867 0.72598 0.345904 0.590723
0.06213083 0.0437036 0.07022823 0.259006 -0.865788 -0.42365
0.04779697 0.003185116 0.0414301 0.966528 0.253588 -0.0384019
0.04674055 0.005955284 0.03570057 0.946872 0.317125 -0.0529137
0.04403213 0.01267476 0.03383015 0.90795 0.414062 -0.0626751
0.040434 0.01845758 0.02588702 0.855118 0.51412 -0.0664042
0.03966503 0.01778892 0.01037806 0.859045 0.508298 -0.060489
0.03790809 0.01982725 0.003949761 0.835181 0.546025 -0.065465
0.03551876 0.02253429 -0.002424787 0.801976 0.59443 -0.0583869
0.03548702 0.0237914 0.009204491 0.789082 0.610693 -0.0655363
0.05399942 0.04966448 0.06694695 0.752402 -0.657058 0.0444861
0.05628254 0.04388948 0.07511332 0.397218 0.341805 0.85162
0.05306476 0.03646671 0.07696611 -0.217553 -0.294796 -0.930444
0.049723 0.04640063 0.07669736 0.319647 0.286667 0.903005
0.04815886 0.05282856 0.07486551 0.368685 0.392083 0.842668
0.0411725 0.05032764 0.07609478 -0.286042 -0.251375 -0.924641
0.04638239 0.0456688 0.07013521 -0.700361 0.713481 -0.0194821
0.002415991 0.05095365 0.08712069 0.190397 0.681794 0.705582
-0.01046584 0.05346561 0.0867743 0.0445764 0.892747 0.445742
-0.004468608 0.05241404 0.08190829 0.148205 0.979399 -0.136943
-0.004585369 0.05096595 0.07077279 0.14834 0.980713 -0.127051
-0.004461838 0.05012689 0.06414467 0.142676 0.983526 -0.110854
-0.01111981 0.05037048 0.05850958 0.0508019 0.997648 -0.0455296
-0.01917051 0.0501987 0.05728251 -0.0743428 0.996328 -0.0417321
-0.02424429 0.04939826 0.05180649 -0.154208 0.987344 -0.0366877
-0.026025 0.04934773 0.05881489 -0.185555 0.981517 -0.0461542
-0.03570734 0.04648272 0.05301259 -0.33927 0.940082 -0.0320968
-0.0397285 0.04467403 0.04785934 -0.405511 0.91342 -0.0328073
-0.04702647 0.0407626 0.04578902 -0.524641 0.850653 -0.0302477
-0.05194807 0.03688511 0.03455427 -0.60224 0.796867 -0.0473131
-0.05771686 0.03184326 0.03399666 -0.700571 0.711627 -0.0515555
-0.06230504 0.02633767 0.02846115 -0.778507 0.625137 -0.054701
-0.06669055 0.020078 0.02803348 -0.848971 0.525735 -0.0531145
-0.06976813 0.01476829 0.03119804 -0.899005 0.43499 -0.0499583
-0.07240118 0.008233641 0.02965214 -0.941762 0.331884 -0.0537835
-0.07130939 0.01201799 0.03691057 -0.919881 0.389833 -0.0420392
-0.07364051 0.005716546 0.03834692 -0.957295 0.286654 -0.0345162
-0.0753426 -0.002053952 0.03565729 -0.9855 0.164813 -0.0393155
-0.07613539 -0.006855644 0.04096452 -0.995003 0.0966215 -0.0211644
-0.07532076 -0.0005096007 0.04340366 -0.981786 0.188101 -0.025759
-0.07642164 -0.00880471 0.04757364 -0.997774 0.0608851 -0.0268441
-0.07600902 -0.01774879 0.03574725 -0.995398 -0.0869745 -0.0383869
-0.07512236 -0.02341378 0.03233566 -0.985203 -0.165086 -0.0452105
-0.07368245 -0.03009845 0.03525176 -0.960943 -0.272635 -0.0469239
-0.07172398 -0.03525054 0.03041385 -0.931507 -0.36129 -0.0408399
-0.06874872 -0.04215269 0.03429916 -0.880944 -0.470944 -0.0456032
-0.0717515 -0.03611846 0.03977842 -0.923456 -0.383205 -0.0188494
-0.0739916 -0.0297391 0.04178219 -0.963303 -0.267348 -0.0225395
-0.07567633 -0.02194579 0.04244496 -0.988182 -0.151594 -0.0216583
-0.07636317 -0.0155707 0.0434211 -0.998101 -0.0550338 -0.0247086
-0.07638232 -0.01726982 0.0504061 -0.996819 -0.0763651 -0.0223017
-0.07492644 -0.02658355 0.04890367 -0.974585 -0.223368 -0.0165537
-0.07209139 -0.03568462 0.04811274 -0.932009 -0.361963 -0.0161743
-0.06946263 -0.04146001 0.04677958 -0.889237 -0.457235 -0.01059
-0.07798924 -0.05879474 0.07275507 -0.951616 0.25105 0.0861359
-0.07644081 -0.0535102 0.07715251 -0.928282 0.355622 -0.0721214
-0.07587159 -0.0223456 0.0562576 -0.9869 -0.160688 -0.0133378
-0.07641566 -0.01920692 0.06191182 -0.992309 -0.110582 -0.0543882
-0.07670762 -0.01365875 0.0579843 -0.999509 -0.0230911 -0.0180407
-0.07591248 -0.002844818 0.05231891 -0.988722 0.14821 -0.0206832
-0.07429051 0.004789782 0.05185166 -0.963472 0.266731 -0.0229747
-0.07171425 0.01164896 0.04416545 -0.924559 0.380111 -0.0257879
-0.06825765 0.01851292 0.04016462 -0.867318 0.496445 -0.0348279
-0.06479868 0.02361685 0.03516181 -0.818189 0.573133 -0.0448879
-0.06354634 0.02571522 0.04183233 -0.793585 0.607734 -0.028575
-0.05700895 0.0329073 0.04082215 -0.68584 0.727012 -0.0313219
-0.05224328 0.03704615 0.04222121 -0.60669 0.794248 -0.0325537
-0.05512577 0.03499154 0.05028461 -0.652348 0.757252 -0.0312525
-0.04859589 0.04001492 0.05260743 -0.548431 0.835496 -0.0335325
-0.04298056 0.04331791 0.05345142 -0.452665 0.891146 -0.0283406
-0.04692382 0.0413601 0.05947056 -0.519259 0.853301 -0.0461055
-0.05316587 0.03684683 0.05624955 -0.612512 0.789489 -0.0390616
-0.05694704 0.03404928 0.06239113 -0.678895 0.729866 -0.0796472
-0.06328872 0.02636226 0.04838702 -0.787199 0.616034 -0.0280274
-0.06677786 0.02129654 0.04588705 -0.842594 0.537621 -0.0304212
-0.06892277 0.01809948 0.05293276 -0.876654 0.480011 -0.0309486
-0.06519434 0.02410751 0.05417442 -0.812304 0.582322 -0.0313143
-0.0644428 0.02555235 0.06062378 -0.799915 0.59747 -0.0550675
-0.06009961 0.03054115 0.05787027 -0.73159 0.679106 -0.0589169
-0.06113883 0.03046916 0.06678462 -0.737051 0.665889 -0.115307
-0.0653755 0.02576976 0.06945181 -0.801367 0.586927 -0.115346
-0.06805597 0.02054823 0.06348234 -0.851238 0.515527 -0.0971671
-0.07219258 0.01111873 0.05261837 -0.929217 0.368858 -0.0218937
-0.07128067 0.01371174 0.05850875 -0.910366 0.412747 -0.0281931
-0.07375364 0.007340774 0.05980105 -0.952818 0.30103 -0.0388622
-0.07552817 0.001576731 0.06372303 -0.972488 0.212465 -0.0950905
-0.07614439 -0.003449907 0.05875748 -0.98998 0.139618 -0.0206613
-0.07690892 -0.008025538 0.06439167 -0.993303 0.0637988 -0.0959766
-0.07687286 -0.002762656 0.06909786 -0.984183 0.140011 -0.108477
-0.07773637 -0.01041079 0.07113174 -0.993925 0.0244315 -0.107291
-0.07773007 -0.01758286 0.07340662 -0.989567 -0.089334 -0.112805
-0.07510709 -0.02684213 0.06196358 -0.970012 -0.238107 -0.0482868
-0.07371239 -0.03151011 0.05745564 -0.953408 -0.301269 -0.0128279
-0.07089577 -0.05568348 0.06026865 -0.791405 0.10499 -0.601085
-0.06676207 -0.04597563 0.04031158 -0.850828 -0.525022 -0.0201381
-0.06334469 -0.0508326 0.03746385 -0.790941 -0.611131 -0.0288405
-0.06857343 -0.06420241 0.06141483 -0.494173 -0.425747 -0.757624
-0.05887567 -0.05607454 0.03658447 -0.738593 -0.673342 -0.0323061
-0.06113409 -0.05374636 0.0432867 -0.754314 -0.655844 -0.0292933
-0.06590572 -0.05803166 0.05635359 -0.574465 -0.34363 -0.742853
-0.05054622 -0.06351437 0.04132276 -0.587128 -0.809234 -0.0196079
-0.06116329 -0.06862691 0.06162442 -0.0245252 -0.766769 -0.640729
-0.03824287 -0.07059716 0.04426009 -0.388634 -0.919916 -0.044933
-0.03172458 -0.07288311 0.04403151 -0.281068 -0.959519 -0.017007
-0.03539261 -0.07175824 0.05021949 -0.338394 -0.940924 -0.00333236
-0.0440249 -0.06778482 0.04679628 -0.479852 -0.877175 -0.0161818
-0.05707496 -0.0694687 0.06707197 0.45612 -0.839912 -0.294088
-0.02505599 -0.07463469 0.05000751 -0.1815 -0.983351 -0.00874914
-0.02074075 -0.07538874 0.05623815 -0.124431 -0.992145 -0.0117975
-0.02780002 -0.07414827 0.05786923 -0.241847 -0.970223 -0.0107262
-0.02726328 -0.07458439 0.06502412 -0.22617 -0.9704 -0.0837834
-0.03622107 -0.07158975 0.06031894 -0.365547 -0.9306 -0.0180401
-0.03966769 -0.06996361 0.05486403 -0.386259 -0.922018 -0.0247707
-0.06025829 -0.07071196 0.07269932 -0.435573 0.860908 0.262822
-0.05497557 -0.06648442 0.06158726 0.40278 -0.868037 -0.289623
-0.006008612 -0.07540435 0.05384508 0.114512 -0.993291 -0.0138942
-0.01156115 -0.07589917 0.06085108 0.0282085 -0.999343 -0.0209323
-0.003020437 -0.07511929 0.06175231 0.163429 -0.985548 -0.0421811
0.001831088 -0.0740419 0.05623566 0.238688 -0.97092 -0.0117683
0.009351983 -0.0717015 0.05650838 0.353317 -0.935282 -0.0146469
0.01584821 -0.06869756 0.05077568 0.467569 -0.883737 -0.017005
0.02401255 -0.06372262 0.0546386 0.588065 -0.808426 -0.0234574
0.03091123 -0.05788259 0.05034827 0.693922 -0.710102 -0.118884
0.03730674 -0.05023757 0.04548199 0.801001 -0.598211 -0.0213929
0.03688299 -0.0510533 0.05277222 0.795604 -0.605556 -0.0143454
0.04218526 -0.04285248 0.05100498 0.873936 -0.485617 -0.0200401
0.04663718 -0.03272594 0.04889712 0.946577 -0.321318 -0.0257091
0.04757104 -0.02926508 0.0431202 0.962541 -0.269602 -0.0276829
0.04902968 -0.02294585 0.04449771 0.985384 -0.169256 -0.0184846
0.04974587 -0.01633973 0.04210882 0.997571 -0.0623684 -0.0300343
0.04990448 -0.0103974 0.04471189 0.998938 0.0349701 -0.0279217
0.04991556 -0.007205226 0.05086424 0.996121 0.0825588 -0.0300279
0.04893037 -0.000482495 0.0491173 0.979727 0.196611 -0.0368056
0.0467991 0.00749573 0.0496153 0.944348 0.32685 -0.0364593
0.04379547 0.01403017 0.04186537 0.901672 0.429439 -0.0505907
0.03995336 0.02040914 0.03550228 0.841628 0.53729 -0.0539959
0.0375034 0.02178068 0.01595649 0.818433 0.571747 -0.056693
0.04697772 0.03950845 0.06536821 0.2187 0.262097 0.939811
0.04441818 0.0429451 0.07923289 0.25386 0.223388 0.941057
0.04415773 0.03642928 0.08089072 0.207679 0.217601 0.953485
0.05086629 0.03083696 0.0801086 0.585709 -0.0563058 0.797555
0.0503943 0.001972531 0.08758523 0.263636 -0.0246823 0.950611
0.05069082 -0.006172324 0.08715297 -0.907359 -0.0906976 0.404902
-0.005380191 -0.002942481 0.0951495 0.0233671 0.0493416 0.998495
-0.0001217508 0.003677755 0.09435545 0.192364 0.0179672 0.980555
0.005623519 0.01379248 0.09271605 0.244625 0.0544345 0.967385
0.02946764 0.01659312 0.08791228 -0.0257966 -0.008341 0.999344
-0.00184778 0.01060526 0.09387971 0.0535916 0.114459 0.991968
0.002456264 0.01943586 0.09222595 0.0846533 0.188471 0.978411
0.004560148 0.0258133 0.09076099 0.096618 0.105022 0.989619
0.008197896 0.0311846 0.08910584 0.128441 0.267064 0.95506
0.01682089 0.04604409 0.08628832 0.42866 0.859912 0.252973
0.0345907 0.04962729 0.07805074 -0.519434 0.180627 -0.824856
0.01574019 0.04264585 0.04577658 0.428224 0.902665 -0.0362975
0.03416295 0.04448768 0.0651574 -0.265595 0.316198 -0.898929
0.02852397 0.03202834 0.01704479 0.676332 0.733746 -0.0644829
0.03308991 0.02721732 0.01489579 0.738527 0.671363 -0.0619349
0.02886359 0.03242202 0.02521587 0.672748 0.737278 -0.0614551
0.04100818 0.04341897 0.06583852 0.160021 0.181171 0.970132
0.03604878 0.04367771 0.08097655 0.176312 0.222927 0.958716
0.02294449 0.0426898 0.08575024 0.513541 0.855229 -0.0585362
0.02968338 0.04574699 0.08002622 -0.164868 -0.186346 -0.968371
0.03954739 0.03923654 0.07707644 -0.665201 0.744968 -0.0286103
0.001192172 0.05086535 0.07872361 0.229972 0.964492 -0.129854
0.002479958 0.04829063 0.05959787 0.25952 0.964657 -0.0455628
0.01008241 0.04568852 0.05822353 0.375145 0.926081 -0.0401984
0.01418766 0.0436641 0.05206347 0.428702 0.903024 -0.0273077
0.02044619 0.03988055 0.04197382 0.518759 0.854352 -0.0310932
0.02819122 0.03358194 0.03191342 0.656515 0.751916 -0.0587721
0.02785164 0.03433854 0.03858928 0.64461 0.763186 -0.0447334
0.04657732 0.03202023 0.06632956 0.213549 -0.214522 0.948069
0.04010892 0.03619408 0.06994072 0.704956 -0.709075 0.0094614
0.04982594 0.00728591 0.08357376 0.946754 0.314975 -0.0664018
0.04988579 0.004694971 0.07581592 0.957962 0.263275 -0.113706
0.04813058 0.00478348 0.0606967 0.960123 0.272315 -0.0629416
0.04920269 -0.0006038632 0.05611075 0.980698 0.192488 -0.0329438
0.05011116 -0.006759811 0.05810079 0.995512 0.0852023 -0.0409747
0.05010609 -0.01463445 0.0520964 0.998762 -0.0399961 -0.0282172
0.04940566 -0.02168122 0.05101502 0.988372 -0.148734 -0.030859
0.04969279 -0.02095613 0.05788726 0.989821 -0.139654 -0.02667
0.04843721 -0.02748227 0.05867888 0.969333 -0.243908 -0.0293926
0.04581212 -0.03540612 0.05587929 0.930279 -0.365765 -0.0257157
0.04323522 -0.04118787 0.0578394 0.891538 -0.452512 -0.018852
0.04509071 -0.03785595 0.06357821 0.910479 -0.405872 -0.0790291
0.04745146 -0.0329526 0.0675481 0.939479 -0.32383 -0.111535
0.04931205 -0.02571494 0.06591226 0.970567 -0.215772 -0.106454
0.05047726 -0.01735895 0.06449893 0.99132 -0.0901043 -0.0948918
0.05035976 -0.01330858 0.05917862 0.999187 -0.0197257 -0.0346293
0.0510388 -0.01032456 0.06740803 0.992855 0.0192036 -0.117671
0.05002223 -0.002988459 0.06361006 0.985077 0.140159 -0.0991066
0.04975307 0.002170776 0.06946632 0.967595 0.222531 -0.119195
0.04530016 0.0119937 0.05585499 0.917228 0.395998 -0.0426372
0.04415091 0.01399256 0.0496316 0.902179 0.429135 -0.0431762
0.03996455 0.02121948 0.04599481 0.834207 0.549726 -0.0425765
0.03712779 0.02362332 0.02790052 0.798744 0.597946 -0.0657085
0.03543283 0.02513912 0.02170683 0.774822 0.629155 -0.0609113
0.03372801 0.02804112 0.03137929 0.739314 0.670348 -0.0633359
0.03253029 0.02997766 0.0395068 0.729801 0.682243 -0.0421262
0.04005279 0.03162519 0.06382044 0.313212 0.129326 -0.940711
0.03542587 0.02711117 0.04509077 0.757972 0.651401 -0.0334684
0.03101357 0.03186279 0.04548579 0.688052 0.724395 -0.0416725
0.03240993 0.03795585 0.06349068 0.227995 0.330552 -0.915686
0.02405121 0.03777151 0.04750303 0.567638 0.822679 -0.0209058
0.03327138 0.03008908 0.05407367 0.733319 0.678067 -0.0490298
0.02852501 0.03464507 0.05508061 0.642577 0.764479 -0.050136
0.03419204 0.03123264 0.06067044 0.544133 0.510899 -0.665451
0.02164952 0.03960084 0.05367013 0.536254 0.843509 -0.0296079
0.0253896 0.03770521 0.06104458 0.35238 0.920119 -0.159121
0.01625306 0.04299429 0.06094813 0.454045 0.889288 -0.0535015
0.01031096 0.04620424 0.06553256 0.371456 0.921414 -0.114082
0.01725727 0.04346402 0.06931683 0.463851 0.877987 -0.118066
0.02246661 0.04006723 0.06645346 0.555403 0.823434 -0.115839
0.023775 0.04016357 0.07300363 0.54406 0.829756 -0.124493
0.02846715 0.03635422 0.06996433 0.614233 0.780166 -0.1185
0.03282976 0.03733627 0.07754499 0.253213 0.782562 -0.567962
0.01886348 0.0435344 0.07597316 0.482031 0.866984 -0.125925
0.007922589 0.04830035 0.07454349 0.332436 0.93509 -0.122174
0.002422544 0.04941513 0.06996387 0.246457 0.960865 -0.126413
-0.01198889 0.05122123 0.06730086 0.0367488 0.991917 -0.121264
-0.01842565 0.05081835 0.06487654 -0.0642667 0.990773 -0.119275
-0.02722691 0.04966029 0.0652855 -0.199951 0.973111 -0.113848
-0.0324352 0.04779442 0.05898441 -0.292118 0.95551 -0.0400938
-0.03505503 0.04760694 0.06636317 -0.32499 0.938569 -0.115886
-0.041471 0.04446423 0.06170699 -0.429041 0.90005 -0.0753035
-0.0406972 0.04574 0.06933466 -0.409153 0.904151 -0.122593
-0.04756048 0.04170634 0.06645747 -0.523276 0.843679 -0.119828
-0.04802242 0.04246607 0.07369009 -0.523766 0.842584 -0.12533
-0.05409003 0.03788297 0.07157338 -0.618933 0.775579 -0.124069
-0.0585909 0.03453415 0.07515253 -0.685306 0.717043 -0.127108
-0.06483481 0.02780735 0.07601738 -0.782818 0.609801 -0.123383
-0.06900169 0.02139856 0.07438712 -0.850893 0.510752 -0.122683
-0.07239368 0.01261856 0.06654159 -0.919206 0.379167 -0.106132
-0.0746901 0.006601496 0.06788079 -0.952059 0.284034 -0.113268
-0.07529338 0.007357926 0.07493456 -0.9496 0.291923 -0.113872
-0.07283817 0.01386083 0.07435805 -0.912476 0.391986 -0.117133
-0.07297352 0.0155281 0.08098441 -0.904269 0.409925 -0.119277
-0.0701718 0.02128361 0.08198412 -0.85913 0.498532 -0.115574
-0.06716697 0.02661657 0.08515253 -0.807084 0.575302 -0.132691
-0.06123576 0.03292199 0.08090504 -0.717908 0.684792 -0.124787
-0.0520466 0.04051134 0.07848977 -0.580631 0.804206 -0.126319
-0.04295803 0.04587925 0.0779753 -0.438189 0.889968 -0.12598
-0.03367097 0.04903876 0.07375412 -0.301462 0.945886 -0.119934
-0.02689188 0.05077003 0.07350378 -0.186875 0.973951 -0.128004
-0.022414 0.05211683 0.07822817 -0.127963 0.983359 -0.128225
-0.01561326 0.05204467 0.07371017 -0.023003 0.991462 -0.127963
-0.009480961 0.05220424 0.0760834 0.073294 0.988636 -0.131033
-0.01530778 0.05304379 0.08116119 -0.0246916 0.990356 -0.136025
-0.03193875 0.05043885 0.08031973 -0.270955 0.954029 -0.128004
-0.03478672 0.05036106 0.08644199 -0.310891 0.933577 0.155414
-0.04109512 0.04792295 0.08654992 -0.380322 0.887908 0.194109
-0.04943947 0.04349703 0.08671187 -0.507315 0.820068 0.215465
-0.05578782 0.0388497 0.08698241 -0.578864 0.739999 0.31595
-0.05996212 0.03329738 0.0878887 0.29757 -0.360742 0.876122
-0.04923347 0.02342534 0.08776474 0.224642 -0.200377 0.953556
-0.0179924 -0.006383177 0.09513911 -0.13694 0.0590425 0.988698
-0.01837941 0.0004499928 0.09376072 -0.567997 0.202695 0.797446
-0.07303652 0.01518377 0.08803861 -0.0993497 0.117184 0.96616
-0.07573515 0.008749025 0.08810568 -0.411173 0.125516 0.888831
-0.07701652 -0.002303848 0.08742879 0.921958 -0.142678 0.35079
-0.02349191 -0.0109203 0.09247144 -0.839682 0.300114 0.450639
-0.06531905 0.007072889 0.08762463 -0.283229 0.106504 0.953066
-0.07869962 -0.009514529 0.08836199 -0.0079686 -0.000673975 0.995113
-0.0794797 -0.01810486 0.08774961 -0.878622 -0.391252 0.228696
-0.07816519 -0.02477765 0.08754843 -0.60973 -0.188966 0.762041
-0.07630028 -0.03197399 0.08511824 -0.937128 -0.310674 -0.157846
-0.07215437 -0.04937956 0.07183754 -0.824658 0.485175 -0.290641
-0.0759408 -0.02569385 0.06836024 -0.971906 -0.213855 -0.0982237
-0.07284602 -0.03465606 0.0638182 -0.935793 -0.342106 -0.0845736
-0.07019103 -0.04027314 0.05762113 -0.898762 -0.438361 -0.00641799
-0.0680553 -0.04836089 0.05939887 -0.963716 0.13491 -0.229591
-0.06601591 -0.04926643 0.05323265 -0.8938 -0.307451 -0.325944
-0.06105199 -0.0559475 0.05108867 -0.666242 -0.541595 -0.512339
-0.05672898 -0.05855312 0.04566392 -0.681946 -0.730664 -0.0309713
-0.06018901 -0.06091881 0.05765409 -0.185733 0.886312 0.420526
-0.06921099 -0.04334545 0.0648799 -0.955715 -0.25588 -0.135133
-0.07341725 -0.03530762 0.07199757 -0.926297 -0.361055 -0.107641
-0.06673692 -0.05248913 0.0645583 0.629402 -0.687828 0.348002
-0.05776043 -0.07248054 0.07845174 -0.373716 -0.576489 0.704743
-0.05182276 -0.07084833 0.08270948 -0.189369 -0.642333 0.741563
-0.04398886 -0.07090546 0.08401602 -0.203877 -0.889955 -0.399455
-0.0390736 -0.07081942 0.06678026 -0.419175 -0.901615 -0.106579
-0.0433794 -0.06828265 0.06136858 -0.481161 -0.876351 -0.0203725
-0.05474157 -0.06339657 0.05482917 -0.109324 -0.855656 -0.503727
-0.0515499 -0.06290428 0.04798749 -0.598793 -0.800775 -0.0136287
-0.04824605 -0.06541246 0.05502282 -0.494786 -0.867337 -0.0502544
-0.05023418 -0.06872664 0.07475796 0.271082 -0.925839 -0.262131
-0.01841839 -0.075928 0.06478017 -0.0856027 -0.99217 -0.0901411
-0.01395713 -0.07661745 0.06958825 -0.00846063 -0.99448 -0.104405
-0.007335992 -0.07616462 0.06775914 0.0928957 -0.99039 -0.102377
0.003232928 -0.07399426 0.06488599 0.256358 -0.962584 -0.0868106
0.001555968 -0.07506601 0.07116641 0.227921 -0.968096 -0.103884
0.009700219 -0.07231307 0.06870709 0.35102 -0.930957 -0.0996472
0.01498848 -0.06964395 0.06537459 0.440263 -0.892929 -0.0933138
0.01900031 -0.0671183 0.05958861 0.514086 -0.857586 -0.0154724
0.02458712 -0.06344909 0.06114334 0.594855 -0.803116 -0.0324429
0.03248346 -0.05631236 0.0564733 0.72907 -0.684217 -0.0164865
0.03018641 -0.05889706 0.06317532 0.682364 -0.727547 -0.0698235
0.03490181 -0.05405614 0.06397495 0.754241 -0.651306 -0.0825823
0.03908176 -0.04834824 0.06136337 0.822318 -0.567232 -0.0436878
0.04167935 -0.04552423 0.06862938 0.850028 -0.514459 -0.112571
0.03810815 -0.05121756 0.07052774 0.79394 -0.596559 -0.116944
0.03486934 -0.05576147 0.07386845 0.737714 -0.664616 -0.118509
0.02994475 -0.06038626 0.07226594 0.6733 -0.731466 -0.107784
0.02499812 -0.06390015 0.06851526 0.589646 -0.80024 -0.108762
0.02010353 -0.06752261 0.07111537 0.513524 -0.850933 -0.110125
0.02420326 -0.0655856 0.07658254 0.566495 -0.817172 -0.106013
0.02968252 -0.06196146 0.08107838 0.644443 -0.756651 -0.11016
0.02430988 -0.06642088 0.08360863 0.562781 -0.81972 -0.106183
0.01500998 -0.07117908 0.07849182 0.432066 -0.895714 -0.104914
0.009005785 -0.07343332 0.07630086 0.334857 -0.936056 -0.107587
0.0004002219 -0.07611374 0.0783333 0.206288 -0.973 -0.10297
-0.004852633 -0.07654108 0.07394958 0.126634 -0.985802 -0.110148
-0.008020068 -0.07759157 0.08043903 0.0774748 -0.990959 -0.109023
-0.01451451 -0.07751522 0.07783604 -0.0205704 -0.993554 -0.111109
-0.02415858 -0.07618832 0.07429902 -0.173939 -0.97841 -0.11145
-0.03455286 -0.07308423 0.07108004 -0.321891 -0.939718 -0.115277
-0.03427339 -0.07394406 0.07758221 -0.303789 -0.948231 -0.0920565
-0.04189611 -0.07016695 0.07312724 -0.470816 -0.8771 -0.0944793
-0.04560882 -0.0674663 0.06741536 -0.456253 -0.880956 -0.11519
-0.05001067 -0.0616902 0.06677511 -0.785431 0.17528 0.503848
-0.07231265 -0.04865973 0.08049114 0.81926 -0.458541 0.343078
-0.03787261 -0.07332969 0.08349568 -0.374348 -0.916783 -0.138378
-0.03166002 -0.07603343 0.08662973 -0.323291 -0.923148 -0.206436
-0.02808773 -0.07612559 0.08097856 -0.223899 -0.968062 -0.112665
-0.01980899 -0.07816805 0.08839431 -0.110715 -0.793749 0.590915
-0.01042225 -0.07854086 0.08775085 0.0662702 -0.995185 0.0529092
-0.00293488 -0.07770466 0.08701526 0.134079 -0.986214 -0.0939627
0.004144364 -0.07619365 0.0875477 0.248781 -0.966531 0.0371838
0.01380658 -0.07278824 0.08756149 0.381027 -0.923083 0.0304582
0.02007111 -0.0693333 0.08819988 0.452577 -0.703666 0.538837
0.02799363 -0.06324457 0.0886513 0.203101 -0.122602 0.930893
0.03753447 -0.05231577 0.0881867 -0.54775 0.407934 0.710527
-0.01042135 -0.02928074 0.09446371 0.50701 -0.23157 0.830057
0.03207645 -0.04412786 0.08813579 0.232808 -0.169481 0.957583
0.04210444 -0.047335 0.08831356 0.288716 -0.19962 0.929698
0.044497 -0.04038631 0.08714966 -0.884884 0.432821 0.170486
-0.006297641 -0.0173576 0.09443866 0.543624 -0.179796 0.819374
0.03667805 -0.0355453 0.08813356 0.26307 -0.108428 0.958492
0.05083146 -0.0252293 0.08791917 0.229876 -0.030683 0.957207
0.05267313 -0.01600796 0.08741193 0.729039 0.00134072 0.659411
0.05274197 -0.0112662 0.0827722 0.995599 0.0102604 -0.0926724
0.05202384 -0.01818474 0.07890527 0.988973 -0.0957456 -0.112624
0.05146576 -0.01516061 0.07186525 0.992527 -0.0486614 -0.111703
0.05176623 -0.009078605 0.07398564 0.993047 0.0387661 -0.111034
0.05112997 -0.001985203 0.07425864 0.981936 0.151785 -0.112695
0.04650624 0.01034447 0.06405144 0.924696 0.366408 -0.102743
0.04134654 0.01949787 0.05307414 0.851931 0.522674 -0.0305429
0.03788673 0.02471096 0.05557234 0.796516 0.602283 -0.0519576
0.04101866 0.02054135 0.06023181 0.846476 0.529248 -0.0578268
0.04558603 0.02473006 0.08256952 0.220579 0.0902928 0.97103
0.04290966 0.018393 0.0871803 -0.689302 -0.314236 0.620091
-0.007933216 0.006968667 0.09445631 0.011254 0.0907603 0.995797
-0.009103407 0.01558298 0.09344984 0.0187512 0.146835 0.988981
-0.005411549 0.02793355 0.09087588 0.0677133 0.251466 0.965399
0.001117901 0.03239418 0.08955713 0.083554 0.268952 0.959509
0.003522556 0.03812502 0.08734934 0.10824 0.328221 0.938193
0.005705719 0.04384398 0.08474772 0.159427 0.474569 0.865635
0.01171332 0.04785208 0.08199466 0.384104 0.914992 -0.123185
0.02527439 0.04090095 0.07946604 0.277802 0.789724 -0.54636
0.03558209 0.03257845 0.07348238 0.790144 -0.579394 0.0624919
0.03981724 0.02408424 0.06975378 0.811989 0.571711 -0.117488
0.04003276 0.03170455 0.08262919 0.075427 0.136085 0.987765
0.03726355 0.02788546 0.08738592 -0.123219 -0.0898854 0.97793
0.01088198 0.02379877 0.09034821 0.15393 0.197198 0.968092
0.01619432 0.03137261 0.08759379 0.167835 0.266777 0.949028
0.02173625 0.03461573 0.08521187 0.276954 0.381241 0.881831
0.02828221 0.03568454 0.08374876 -0.619157 -0.775332 0.123531
-0.01222334 -0.001697761 0.09509832 -0.00769659 0.0504651 0.998684
-0.01220506 -0.009373932 0.09535179 -0.0260029 0.0116798 0.999591
-0.01594371 -0.01699754 0.09546135 -0.00992798 0.0206138 0.999728
-0.01475677 0.006538936 0.09443792 -0.155925 0.107759 0.980834
-0.01587763 0.02002727 0.08960632 -0.906987 0.180479 0.3784
-0.06156203 0.02277383 0.08569897 -0.393999 0.248138 0.884845
-0.06712674 0.01390878 0.08568887 -0.458788 0.224806 0.859393
-0.07727419 0.003394508 0.08254097 -0.96756 0.224851 -0.115141
-0.07731863 -0.0001102776 0.07680818 -0.978297 0.173931 -0.112409
-0.0783306 -0.007678218 0.07759736 -0.991774 0.060312 -0.112636
-0.07868831 -0.01501316 0.08004938 -0.991443 -0.0469988 -0.121629
-0.077543 -0.02314002 0.07797575 -0.979372 -0.166319 -0.114564
-0.07593126 -0.02894548 0.07539248 -0.958061 -0.261311 -0.117212
-0.0740426 -0.03575129 0.07872462 -0.921108 -0.373219 -0.110436
-0.07093957 -0.04149866 0.07252518 -0.94389 -0.299147 -0.137679
-0.07339864 -0.03967988 0.08400932 -0.951778 -0.167431 -0.255179
-0.065882 -0.04586323 0.07654129 -0.510993 -0.848542 0.0914003
-0.0600109 -0.05219815 0.05871945 -0.744341 -0.666987 0.0322955
-0.05754868 -0.05457813 0.06586379 -0.73086 -0.681785 0.0313295
-0.05458019 -0.05773425 0.06094739 -0.688638 -0.724692 0.0233951
-0.05940606 -0.0559851 0.08200278 -0.624156 -0.59564 -0.501357
-0.06330433 -0.04777914 0.06878331 -0.780808 -0.622821 0.0487312
-0.0562271 -0.05544838 0.07494317 -0.700094 -0.713294 -0.00554567
-0.0541398 -0.05998123 0.08126879 -0.381784 -0.382504 -0.838753
-0.04967302 -0.06150552 0.07470927 -0.795384 -0.598844 0.0753027
-0.06140436 -0.05025583 0.07840227 -0.566159 -0.762507 0.310534
-0.06511545 -0.0478594 0.0839875 -0.553381 -0.391357 0.733914
-0.05411769 -0.05578755 0.0862903 -0.292348 -0.3605 0.885353
-0.047442 -0.05703983 0.08776955 -0.210682 -0.248112 0.945471
-0.04434267 -0.06346652 0.08617114 -0.22912 -0.403394 0.885786
-0.03581653 -0.06531702 0.08719963 -0.163482 -0.331757 0.928919
-0.02678134 -0.071073 0.08583151 -0.101006 -0.492707 0.864234
-0.01572331 -0.07522625 0.08404298 0.0291494 -0.768226 0.637344
-0.01312512 -0.06968737 0.08721768 0.0095734 -0.395216 0.918518
-0.005537545 -0.06687403 0.08811374 0.0323363 -0.313227 0.949
0.0001314276 -0.07018811 0.08630493 0.0823205 -0.474167 0.876529
0.009732874 -0.0669774 0.08640695 0.167306 -0.455356 0.874437
0.003856368 -0.06434623 0.08827244 0.0768657 -0.25932 0.962697
0.01667347 -0.06246885 0.08697674 0.171271 -0.362201 0.91607
0.03326338 -0.05943098 0.08607715 0.697028 -0.705939 -0.125379
0.03621833 -0.05539358 0.08053886 0.752364 -0.649258 -0.111017
0.04158536 -0.04827147 0.08033457 0.83013 -0.546695 -0.109239
0.04323134 -0.04431631 0.0748022 0.867014 -0.483198 -0.121653
0.04507672 -0.03964718 0.07040688 0.897637 -0.427014 -0.108845
0.04912943 -0.02983463 0.07312759 0.954187 -0.275402 -0.116642
0.05067872 -0.02287137 0.07258943 0.978594 -0.169623 -0.116223
0.05080893 -0.02686208 0.08086345 0.968502 -0.22374 -0.108898
0.04823377 -0.034374 0.07784983 0.934602 -0.336927 -0.113961
0.04561311 -0.04135165 0.08086552 0.890483 -0.441182 -0.111222
0.04718029 -0.03283563 0.0846644 -0.942739 0.298723 0.147838
0.03819329 -0.04252331 0.08630226 0.441955 -0.227603 0.867589
0.04443301 -0.02427072 0.08637232 0.439615 -0.066539 0.895659
0.04611482 -0.01544061 0.08595234 0.481815 -0.00636816 0.87613
0.05207713 -0.003676023 0.08109816 0.9879 0.124936 -0.0916535
0.047442 0.01321688 0.08220094 0.915877 0.395998 -0.0658479
0.04789346 0.00893778 0.07071582 0.931239 0.341823 -0.12586
0.04335122 0.01746331 0.06581078 0.85435 0.507862 -0.108014
0.04529406 0.01652221 0.07644948 0.885788 0.44996 -0.113545
0.04193956 0.02225446 0.07559041 0.834975 0.536511 -0.1219
0.03853474 0.02759141 0.07778969 0.761647 0.632023 -0.142139
0.03341854 0.02960211 0.08195406 0.412468 0.311134 0.840499
0.03116101 0.02322963 0.08628032 0.318487 0.273348 0.907315
0.02769427 0.0288095 0.08559053 0.325602 0.339296 0.882447
0.036964 0.01603981 0.08608928 0.381854 0.241355 0.892105
0.04000599 0.007907387 0.08663844 0.374158 0.166943 0.912138
0.04406494 0.002506158 0.08567042 0.467858 0.146014 0.871458
0.04183136 -0.003833653 0.08738815 0.333868 0.071898 0.939724
0.03559709 0.003031084 0.0880921 -0.129274 -0.00307663 0.990999
0.0006035673 -0.004746361 0.09127233 0.883598 -0.360304 0.298256
0.03954713 -0.02863376 0.08794996 0.29418 -0.0723438 0.952865
0.04016143 -0.01397446 0.08826075 0.199499 0.0142218 0.979312
0.03633494 -0.01933548 0.08798558 -0.448112 0.07418 0.890313
-0.014323 -0.02351858 0.09545945 -0.00981532 -0.0241136 0.999635
-0.01936461 -0.02890059 0.09514631 -0.0312945 -0.0549919 0.997987
-0.02260131 -0.03683177 0.09438266 -0.0450043 -0.107557 0.993155
-0.02326671 -0.04318741 0.09351128 -0.0543072 -0.15259 0.986785
-0.03012976 -0.05495948 0.09099782 -0.232898 -0.212512 0.946282
-0.0391049 -0.055922 0.08946477 -0.146259 -0.245106 0.958341
-0.02863831 -0.06277768 0.08884639 -0.0956152 -0.27167 0.957226
-0.02147711 -0.06629133 0.0882521 -0.0501417 -0.293541 0.954575
-0.02392134 -0.05827201 0.09061486 0.064226 -0.226325 0.971824
-0.01244459 -0.06201233 0.0896019 0.116965 -0.16526 0.978908
0.0100384 -0.05837924 0.08863857 -0.0595929 0.0990528 0.99328
-0.0150956 -0.03944036 0.09426452 0.043794 -0.127331 0.990697
-0.01574112 -0.0463718 0.09322465 0.0569856 -0.178088 0.982226
-0.02237677 -0.04989584 0.09241068 -0.0549261 -0.184753 0.981222
-0.02959185 -0.04774239 0.09232093 -0.0849748 -0.180334 0.979922
-0.03645454 -0.0487016 0.09142828 -0.127068 -0.181659 0.975103
-0.04398416 -0.04889486 0.0898046 -0.216458 0.178317 0.958372
-0.06536333 -0.02558251 0.088386 -0.179802 -0.044135 0.982242
-0.06779958 -0.03163826 0.08706057 -0.387996 -0.117079 0.914035
-0.0721513 -0.02698721 0.08555441 -0.525096 -0.133591 0.840323
-0.07316809 -0.01726922 0.08585787 -0.49762 -0.0341801 0.86631
-0.07223162 -0.006481141 0.08623797 -0.457369 0.0496325 0.887679
-0.07175386 0.001935787 0.08561254 -0.493193 0.13189 0.859833
-0.06557518 -0.0001289981 0.08819956 -0.168793 0.0483025 0.983876
-0.06503449 -0.006741258 0.08830803 0.105405 0.00934824 0.993853
-0.02154889 -0.02164913 0.09530941 -0.0414998 -0.0161063 0.998995
-0.02733994 -0.02838533 0.09463639 -0.269694 0.0513189 0.960204
-0.06724153 -0.01571209 0.0882614 -0.220141 -0.00441446 0.975423
-0.05988928 -0.02929637 0.08754656 0.519143 0.193263 0.832422
-0.02788593 -0.02041072 0.09052171 -0.894656 0.382399 0.230903
-0.0610848 0.01599354 0.08753607 -0.257072 0.170567 0.95098
-0.05492638 0.01896819 0.08805043 0.0451159 -0.0302719 0.998233
-0.04477058 0.02825778 0.0878652 0.101069 -0.120105 0.986755
-0.01770605 0.01159163 0.0893713 -0.946961 0.235332 0.218221
-0.05628091 0.01130917 0.0869069 0.526694 -0.283253 0.801416
-0.02255721 -0.004710733 0.08826908 -0.935073 0.310301 0.171225
-0.05934084 0.004408886 0.08686966 0.566138 -0.207937 0.797522
-0.04927148 0.01740856 0.08496354 0.4927 -0.401684 0.771763
-0.005517907 -0.02265616 0.08998438 0.932242 -0.280677 0.228338
0.03240689 -0.03014625 0.08737817 -0.565222 0.228863 0.792452
-0.002565001 -0.01375551 0.09013864 0.916402 -0.332039 0.223435
0.02932073 -0.05389186 0.08651802 0.26195 -0.323494 0.907207
0.02026405 -0.05592139 0.08828276 0.167638 -0.20986 0.963156
0.02357433 -0.04629111 0.08811548 -0.344733 0.338507 0.873982
-0.009696204 -0.0355676 0.09189218 0.85885 -0.232803 0.454333
0.02388413 -0.0390097 0.0845972 -0.52215 0.376872 0.765057
-0.006587216 -0.028165 0.08656509 0.951941 -0.271819 0.14112
0.02915016 -0.02544337 0.08345862 -0.604282 0.193638 0.772842
0.01759151 -0.04905934 0.08650669 -0.419704 0.493957 0.761425
-0.02019634 0.004167951 0.08623149 -0.947933 0.282458 0.147005
-0.05373971 0.0291017 0.08638296 -0.25455 0.318062 0.913203
-0.04780462 0.03386515 0.08634655 -0.278475 0.326091 0.903301
-0.04279514 0.04039433 0.08453214 -0.213272 0.518854 0.827763
-0.02758324 0.04984429 0.08543911 0.211352 -0.970056 0.118349
-0.02229227 -0.001547544 0.08168381 -0.952165 0.30077 0.0535814
-0.0540975 0.004018929 0.08284497 0.575392 -0.229815 0.784916
-0.02654655 -0.01485574 0.08558051 -0.929287 0.350066 0.117395
-0.05872328 -0.004511188 0.0845832 0.606833 -0.0877261 0.789961
-0.03096614 -0.02657145 0.0886928 -0.900946 0.416105 0.122846
-0.059288 -0.01385992 0.08457966 0.623669 0.0298826 0.781097
-0.04880214 0.008985139 0.08092447 0.508874 -0.33219 0.794147
-0.00343928 -0.0191189 0.08418573 0.943649 -0.3201 0.0839099
0.02442824 -0.03213646 0.08195721 -0.563236 0.296617 0.771171
0.004165549 0.001920376 0.08894389 0.888816 -0.422801 0.176698
0.03536465 -0.008873927 0.08707811 -0.599306 -0.0456414 0.798995
0.03027046 -0.01828192 0.08308245 -0.635767 0.0834866 0.767328
-0.03337383 -0.03254827 0.09088311 -0.832731 0.418694 0.360434
-0.05689271 -0.01989332 0.08322717 0.617635 0.114268 0.778064
-0.00388116 0.02169535 0.09220705 0.0456873 0.197735 0.979178
-0.006347788 0.03708661 0.08845313 0.0347412 0.315995 0.948055
-0.02118762 0.05107943 0.08663056 0.103464 -0.942896 0.308016
0.00714704 0.007647482 0.0878929 0.880183 -0.450872 0.148064
0.03145011 -0.004320977 0.08430564 -0.628115 -0.114673 0.769568
-0.009196764 -0.03908646 0.08532031 0.972561 -0.217798 0.0815812
0.01826423 -0.04167351 0.08240179 -0.472775 0.432338 0.767826
0.02870858 -0.01099545 0.08150044 -0.626845 -0.0286738 0.77861
-0.03198911 -0.04037773 0.09326618 -0.121682 -0.122838 0.98484
-0.05578468 -0.04799872 0.08801038 -0.24472 -0.190744 0.950361
-0.06072909 -0.04288222 0.08768103 -0.296742 -0.194176 0.934839
-0.06612504 -0.03810482 0.08657918 -0.404998 -0.181161 0.896159
-0.05520517 -0.03584707 0.08640873 0.540984 0.311262 0.781308
-0.03741492 -0.03933872 0.0898298 -0.809738 0.434894 0.392222
-0.05341698 -0.01411233 0.07993832 0.610498 0.0355108 0.791201
-0.01728944 0.01670386 0.08384436 -0.977395 0.191316 0.0897131
-0.04223269 0.01984495 0.08235262 0.458753 -0.42241 0.780949
-0.05213943 -0.007096666 0.07912344 0.610806 -0.111538 0.783839
-0.00109937 -0.01263378 0.08350295 0.936335 -0.33514 0.104049
0.02357264 -0.02290717 0.07853519 -0.587027 0.170009 0.791451
0.003107641 -0.002044433 0.08380167 0.91437 -0.39195 0.101304
0.02488117 -0.01597393 0.07858127 -0.617945 0.0558038 0.784194
0.01846464 -0.03331976 0.07832088 -0.509335 0.343818 0.78886
-0.01875044 0.01092053 0.0811356 -0.967541 0.239523 0.0803032
-0.04942647 0.0002902714 0.07843913 0.569101 -0.20216 0.7969
-0.01213307 0.02939717 0.09051146 -0.296929 0.218703 0.928488
-0.04002469 0.03373146 0.08775538 -0.070279 0.149959 0.985337
-0.03176702 0.03620191 0.08778296 0.0173207 -0.0198516 0.999462
-0.01305351 0.03610483 0.08893228 -0.0190731 0.262966 0.964588
-0.01124551 0.04352894 0.08642744 0.0216477 0.377227 0.925818
-0.01808616 0.04488088 0.08582055 -0.0226664 0.441111 0.897154
-0.02574757 0.0414594 0.08690415 -0.0707098 0.354716 0.932175
-0.03621732 0.04413355 0.08397366 -0.202751 0.557896 0.804716
-0.01948887 0.03610187 0.08737996 -0.13366 -0.48526 0.863867
-0.03803053 0.02789531 0.08557625 0.341486 -0.496575 0.797986
-0.005073259 -0.02529958 0.08060598 0.952685 -0.292535 0.0822263
0.01856418 -0.02725451 0.07609142 -0.53446 0.248904 0.807562
-0.01057333 -0.0451509 0.08724795 0.981407 -0.149746 0.119678
0.01282675 -0.03773352 0.07704344 -0.445239 0.422694 0.789213
0.02971502 0.004778 0.08500543 -0.591497 -0.222162 0.775033
-0.03004579 -0.02321161 0.08162126 -0.918518 0.389216 0.0667872
-0.05480771 -0.02690967 0.08305031 0.5923 0.212284 0.777065
-0.01598482 0.02477126 0.08508247 -0.988156 0.106769 0.110082
-0.04106814 0.01194195 0.07741006 0.429531 -0.38992 0.814486
-0.05047329 -0.02362812 0.0790152 0.583737 0.186407 0.790207
0.01061558 0.0136996 0.0870847 0.846107 -0.513738 0.1418
0.02611347 -0.003460088 0.08022817 -0.606436 -0.149237 0.780914
-0.01224833 -0.0509293 0.09011631 0.804043 -0.183987 0.564021
0.007954829 -0.05219091 0.08416198 -0.298506 0.56292 0.770672
0.005630263 0.002318306 0.0789092 0.894403 -0.434222 0.107133
0.03394915 0.01053203 0.08797052 0.0983522 0.064586 0.992866
0.02409315 0.02346473 0.08787736 0.0960626 0.0396355 0.994074
0.0174296 0.02060774 0.08668604 0.220158 -0.76875 0.599776
0.009761762 -0.0454625 0.0802149 -0.365366 0.532817 0.7632
0.009312566 0.01011796 0.0808622 0.863672 -0.491586 0.109637
0.02180348 -0.009240284 0.07619701 -0.599543 -0.0549751 0.798291
-0.007035991 -0.03261243 0.07918298 0.963912 -0.244896 0.104034
0.01700011 -0.02139924 0.07385757 -0.429936 0.140317 0.891774
0.001069076 -0.05858707 0.08688696 -0.175041 0.599314 0.781095
-0.02510582 -0.009354164 0.07779914 -0.938353 0.32645 0.113247
-0.04299074 0.00529423 0.07572827 0.47926 -0.317021 0.818303
-0.03387393 -0.03148244 0.08350432 -0.877203 0.472638 0.0833502
-0.04793878 -0.01064438 0.07573026 0.558574 -0.0142881 0.829217
-0.027914 -0.01738942 0.0789734 -0.927285 0.360396 0.101249
-0.04353128 -0.002974181 0.07386376 0.442729 -0.132896 0.886679
-0.0497383 -0.03265851 0.08136313 0.536931 0.308023 0.785372
-0.0203584 0.00609841 0.07709289 -0.960989 0.23528 0.143602
-0.03477624 0.02083475 0.07954305 0.359591 -0.516641 0.776466
-0.04256986 -0.04378678 0.08528911 -0.264145 0.811597 0.520385
-0.02924582 0.02656685 0.0815784 0.226051 -0.570549 0.789505
-0.001810187 -0.01666826 0.07667553 0.938553 -0.328923 0.104018
0.01194011 -0.02639375 0.07264338 -0.265351 0.166581 0.949536
0.02436714 0.003168209 0.08056873 -0.568233 -0.227254 0.790844
-0.03764162 -0.0370865 0.07999249 -0.837176 0.538539 0.0930325
-0.04607345 -0.01861968 0.07490918 0.516675 0.108497 0.849184
-0.02544593 0.03221293 0.08482661 0.201878 -0.591737 0.780208
0.00338969 -0.003429796 0.07633993 0.917646 -0.356271 0.174485
0.01644246 -0.01466846 0.0729918 -0.382192 0.0315929 0.923349
-0.01036394 -0.05497331 0.08541443 0.818834 0.366154 0.440834
0.02224666 0.01090558 0.08204114 -0.486717 -0.362551 0.794727
-0.005506207 -0.0604522 0.08729409 0.0128269 0.601142 0.798929
0.001308477 -0.009637374 0.07407147 0.928013 -0.336229 0.160384
0.02033651 -0.0008657697 0.07653296 -0.562915 -0.209702 0.799296
-0.004275453 -0.05466903 0.08281972 -0.0974385 0.612178 0.784643
-0.02299992 -0.001946006 0.07514217 -0.935458 0.286575 0.20633
-0.03527645 0.01530073 0.07624806 0.350638 -0.541186 0.764266
