0.05552819849705108 -0.08433217763891873 0.1267222608484187 0.02178269296036929 -0.034165884271254034 0.9991787661071254 1.14140170107344
0.059501746923206325 -0.08531616894826914 0.11762995962181468 0.02606199051497839 -0.03875955610211261 0.9989086391963804 1.1836107744516255
0.06647581791350185 -0.08748743643480186 0.11378028151938158 0.023489193047474377 -0.03144574473567713 0.9992294145730486 1.2895149367338399
0.07567240233550736 -0.08895580239204764 0.10664052801357074 0.0236817750893483 -0.028005146252112034 0.9993272163370791 1.407241955218878
0.07738405132979798 -0.08947183834460247 0.11249709120495623 0.02288308062782956 -0.025911457189979354 0.999402301882116 1.449072456351772
0.08745209528823784 -0.0897673705260344 0.10928587134901423 0.024105302375610226 -0.02427542897245771 0.9994146476541073 1.563495549797917
0.09994713542432525 -0.08833013418485251 0.10556255546811033 0.02488688393569044 -0.021546672523786965 0.9994580450980042 1.7140178778831592
0.109077308773569 -0.08607632341638055 0.10565067750277525 0.02583017184673446 -0.019559509632795027 0.9994749760775868 1.8444151939445723
0.11618934583556592 -0.08322421949853094 0.10106960795356537 0.025924839874739012 -0.017649585625648882 0.9995080764079458 1.9465761340937993
0.12548523812547488 -0.07852226442685706 0.09868490446286061 0.023203967399166137 -0.014007454421076185 0.9996326160733151 2.063286533595182
0.134599137003377 -0.07157763368779158 0.09689239107402788 0.042095709605974675 -0.01983375767581178 0.9989166998750331 2.2302676079364057
0.14130297112547963 -0.06607657946023464 0.10142049222894386 0.03238164631342891 -0.01380503440481103 0.9993802329479575 2.337956609065121
0.14705288614227602 -0.06021641670784071 0.10512258563894067 0.024817398751784243 -0.00910998759190901 0.9996504913444849 2.4533002846836696
0.1429441582391815 -0.06531026303725021 0.10897427254113386 0.023073264543492886 -0.009116155605179949 0.9996922127186387 2.391042336020112
0.13629826165445058 -0.07154645979214458 0.10914395012875755 0.026518611425482917 -0.012217959769502499 0.9995736514670317 2.2837676841504306
0.12692075880243667 -0.07809250936058376 0.10704416209952757 0.024382406192986244 -0.013147123327311336 0.9996162520769942 2.1484913557252168
0.12023348569715601 -0.08193893428091395 0.11024754931152222 0.024497455558118497 -0.014817280487878311 0.9995900774167986 2.0520346642217713
0.1267003921986893 -0.0785804284132884 0.1136004823131789 0.024955735475458 -0.014313954366936204 0.9995860753218105 2.1003596405541605
0.12513174235391034 -0.07985619175418868 0.11991269045050683 0.02497317299078215 -0.01449637902628155 0.9995830108729834 2.089783207480673
0.13096981058399504 -0.07626403123862546 0.12075847373787565 0.02632407892257662 -0.014178779246075959 0.9995529025959401 2.153088646325724
0.13738308051251305 -0.07134518862267848 0.11604208503021314 0.020031779497327692 -0.009555682568233997 0.9997536780331571 2.266886305564945
0.14503923575311173 -0.06356401484339476 0.11487813596217268 0.02233499325624801 -0.008700006842814939 0.9997126877044116 2.398784098112309
0.15086996098450695 -0.055357836411885915 0.11107271238541512 0.025139640611431077 -0.007793240373478602 0.9996535719310012 2.535310707298681
0.1554663188723086 -0.04695945834721829 0.10941858184441611 0.02661792808902614 -0.006498846109230896 0.9996245549722637 2.6591535592422084
0.15896745798020906 -0.03849413188146684 0.11054420429704356 0.028122969297867444 -0.005018275390046377 0.999591874471767 2.7854010323619716
0.16146466600810766 -0.028035721608311283 0.1095486310865689 0.03067770101270614 -0.003340871539181686 0.9995237452096543 2.920208773369613
0.16272292407525954 -0.023594285834348642 0.11641467643290411 0.02836504951735483 -0.002172552740758357 0.9995952700870822 2.990043692815886
0.16161596375498236 -0.03008477347140554 0.11736887106643129 0.027868019497550856 -0.002783044851782578 0.9996077371402431 2.9419880282102957
0.15838217243746425 -0.041237347035310686 0.11695015992733925 0.02729860026813811 -0.004653058675450955 0.9996164941958307 2.801419285741795
0.153489607708065 -0.05172644712048047 0.11858480296305764 0.026079315209455275 -0.006369950893445991 0.9996395815711885 2.6578418945120488
0.15577580532623744 -0.048346113879711924 0.1260506709038074 0.026312700955049277 -0.006234374470698705 0.9996343203108871 2.6753679984768044
0.15915268361724264 -0.04074817161804784 0.12622163772145703 0.02512461240705726 -0.0047326887738337545 0.9996731243303308 2.771588262663195
0.1617612853131229 -0.03114689877299008 0.12495017127344704 0.02992066697129782 -0.003846137261084646 0.9995448768895581 2.879814542465655
0.16341135045352592 -0.02231712155836162 0.1236581909343765 0.025544646574088843 -0.0018644821045810049 0.9996719435584289 3.0045560898390224
0.16343113423531572 -0.013803187346108844 0.12347008373015016 0.03266779176176388 -0.0005769705963157316 0.9994660987178811 3.1001119025948034
0.1626704117506009 -0.006115547037277016 0.11719128182224132 0.03372653289929716 0.0012828141379160973 0.9994302753901745 3.2148263500835466
0.16099918520268489 0.0023751836701290333 0.11059278757238529 0.02945977700551952 0.0027443298133918506 0.9995621992615868 3.3351818487599143
0.15866244604288396 0.010838603522915461 0.11091452097234616 0.025170319568054586 0.0038312319030590547 0.9996758357962581 3.4568077783023954
0.17081505425961796 0.02402632859736935 0.1310339648064074 -0.17616820519985835 0.27924275588753245 0.9439217376249985 1.9900079084396929
0.16561417820532576 -0.005011284581592777 0.14302662276527747 -0.03197823572573626 0.07936948526225758 0.9963322122911985 2.8266914288346077
0.1648842781341606 -0.010559534704768003 0.13297259249615395 0.006356898316133464 0.025546473898939537 0.9996534236999987 3.069775236338999
0.16280556698830934 -0.0007965828341892633 0.12542761164427002 0.018877051216195578 0.009994187188965456 0.9997718605561037 3.2699119306637074
0.17304566573341015 0.04095113741680754 0.1352153039794035 0.18338658025116877 0.032722747766286746 0.9824960987008579 3.4023828161943235
0.16752580840336306 0.036294113665752026 0.13602486245013695 -0.0490202516291696 0.32205826021260076 0.9454498886556841 1.7530059384094092
0.15786121325539285 0.0494347306308457 0.1250766640184196 0.233250589785511 0.19399449382930964 0.9528695077126883 3.2153493791968173
0.1577184625056767 0.055146798058515065 0.1298682174610515 0.27215275054309246 0.14757835574927633 0.9508698697961616 3.689067419066948
0.16326499134183964 0.06196152867675897 0.14085370048916634 0.22555374103224057 0.10608730398370196 0.9684373979973256 3.853112401338771
0.16320175745992516 0.05713480930659005 0.14114318423191083 0.0003138605414406767 0.2583642272751175 0.9660475286216988 1.9323615054696528
0.1648854785987088 0.058129734866503475 0.13563488986258027 0.0007428104826996963 0.07537454956182325 0.997155015787886 2.2234497278724596
0.17079547584015145 0.033468449593614384 0.14855041974349148 -0.08351915005856139 0.24827963218672996 0.9650812275734709 1.2596835790455878
0.1614249283757653 0.007755408626355537 0.14579009891237354 0.004110425965131476 0.0593267374788226 0.9982301551338267 2.760972953790001
0.181377261918787 0.036953552572646646 0.1581027081420202 0.0021525048347917648 0.019076076075038605 0.9998157180423376 2.5522071897952205
0.172482513268558 0.03147765549117989 0.14962336640934365 0.1263502880633969 0.006762058624235974 0.9919626400573053 2.9668097512916853
0.17696364521082794 0.056048045326191044 0.14960768784457196 0.13458517838312165 0.03936736251871041 0.9901197102006929 3.60376138169042
0.1669604445267351 0.06893865306248963 0.15253225726642908 0.1298158537306385 0.05078065728819411 0.9902369256726213 3.8526983449912513
0.17130543879625373 0.06790718977062778 0.15860449855889935 0.10065239924816544 0.039585025572955325 0.9941338543053326 3.879130047324255
0.16515476467538237 0.07433403593466371 0.16016926294192121 0.09288724604281208 0.04447528911153601 0.9946828178776527 4.034332895835571
0.17063198346933156 0.07189452450184275 0.16847951649559642 0.07587930864424511 0.033581464107726645 0.9965513613397218 3.9671914214973905
0.17762295449462967 0.06526644932869052 0.17105141937482707 0.07204033666130451 0.02837393832136401 0.9969980489037384 3.885967778265628
0.17592821210540519 0.06085119072390262 0.16761986179800434 -0.0002876671776472022 0.10107320602319865 0.994878949557074 1.6584542986357182
0.17612368536800374 0.05809882795320402 0.16312630238202117 0.0013663476086450696 0.026857107747609743 0.9996383490331119 2.1350838182492344
0.1776352521399566 0.033498665590224075 0.17557645569858504 -0.001637361062706743 0.013621223352466473 0.9999058862328657 1.5598742805003196
0.16611020826397804 -0.015904000880412435 0.16255763314938906 0.02105405870899097 0.002926697032073371 0.9997740550026094 2.6136217684014844
0.1651282169792848 -0.014445725156749311 0.14676586378487616 0.021708877157096147 0.0008047167214255614 0.9997640106963125 2.9797385774307634
0.16434475777906168 -0.01930694131821671 0.1342176196450517 0.021543582448252614 -0.00011473406576122801 0.9997679035113046 3.056973903834549
0.16301299038025988 -0.02784473360740506 0.13213021681073028 0.026695680912735827 -0.0022338542801855045 0.9996411108571218 2.9629257623529774
0.16088957643050283 -0.036320255029419726 0.13312387164480316 0.02881912311692666 -0.0038693853401775523 0.9995771536003916 2.873567567024264
0.15780696876878858 -0.04523533712631204 0.13572315992458658 0.02626003623565082 -0.005117699575226847 0.9996420457583604 2.7498335485432692
0.15381139370791588 -0.05268527076662114 0.13268877067472062 0.024427238589875607 -0.006221967127341289 0.9996822480868306 2.635560231675178
0.14918487350714335 -0.05940545079297919 0.1268961671853397 0.021197380158253707 -0.006524714470746019 0.9997540193345069 2.5344648338572338
0.14475920213878435 -0.06415465029070504 0.12128925225967904 0.026862406468221942 -0.010274240550886698 0.9995863399926186 2.4187553360016687
0.14010724229804478 -0.06923814428531688 0.12438370467132356 0.022009214525948947 -0.008997815760127603 0.9997172769275808 2.3629847764367273
0.1431027644978601 -0.06698033537721082 0.13227663122494984 0.019833885580521373 -0.008240289257639944 0.9997693307037024 2.3533195321460134
0.13869696176362295 -0.07110153135316401 0.13437470188940073 0.025224939869853157 -0.011074020576845266 0.9996204622139474 2.3172219348180025
0.12885517261790894 -0.07824116325222882 0.12859526499945528 0.02269380276078684 -0.011917945310732946 0.999671422966479 2.166983896307207
0.11887437891393382 -0.08328613856475114 0.1245394010574661 0.02669981292693662 -0.016671616362225673 0.9995044658217079 2.031442197482281
0.11240215801153604 -0.0855400491600284 0.11650595356079173 0.02551834518854216 -0.017493020629413623 0.999521289562207 1.9393545695530956
0.10523398287537854 -0.0875260002591857 0.11254070851304683 0.0250247060253618 -0.018995686602987276 0.9995063421403716 1.841502935750699
0.09650014176727056 -0.08930271478999052 0.11405806863503112 0.024351264916484126 -0.02064036587152992 0.9994903657332855 1.7329500045241675
0.10190310922821101 -0.08863633544252605 0.11923890556113914 0.024354502541260602 -0.01993602126916364 0.9995045839124116 1.7700050220875088
0.09552605192720173 -0.08975842721096117 0.12091347430463455 0.024570962126934496 -0.02147134112788195 0.9994674828779209 1.7052380977674493
0.08596110972079164 -0.09027519129346924 0.11945402976767763 0.024128128549512122 -0.023544685441959073 0.9994315790488798 1.5934469237383395
0.07464853919340479 -0.08946354127155433 0.1207816636994077 0.023994119827187202 -0.026848904584527707 0.9993514989913858 1.456921183284746
0.06595875546628836 -0.08776644828835407 0.12271093278001087 0.0236468020995742 -0.029994528923791248 0.9992703122704604 1.3332214429671028
0.07269571173866901 -0.08952445408165992 0.12736679311767093 0.021835204926003975 -0.026294418421150267 0.9994157430147541 1.3886472148099813
0.06638434589886212 -0.08841471793845229 0.1325104423508426 0.021718789807749515 -0.028151220829816165 0.9993677015668845 1.3143034710496697
0.07500331305289859 -0.09020188077110423 0.13442259144870636 0.022279757010721303 -0.026232899412827703 0.9994075482084072 1.408736775049179
0.08282488591393881 -0.09078706375104317 0.1311176055358241 0.022914224399607476 -0.024491137123972127 0.9994374030035793 1.5046716402049471
0.09234780055177748 -0.09049646543857585 0.12889177747225752 0.02373167996910913 -0.02255439708307956 0.999463909572558 1.6215759138129782
0.10302973837643267 -0.08875124127421255 0.1267441179994589 0.025565901242844583 -0.021193746085659573 0.9994484528080965 1.7546618139661208
0.10086191776209494 -0.08951059540206505 0.13269106626391897 0.024811181308675864 -0.020599370527033957 0.9994799003561593 1.754489570975506
0.11162500566550913 -0.08661430548115809 0.1322540223077038 0.026034882099951837 -0.019131999289536843 0.9994779394850227 1.8729413760549554
0.10860493659705202 -0.08785117929816122 0.13693086148579792 0.025041636589110797 -0.018738314462003997 0.9995107763341333 1.8559930683763117
0.10415526432394531 -0.08929594318578833 0.1423342595099756 0.02482500381301784 -0.019492978942241487 0.9995017473509692 1.809566686075989
0.09409656650506387 -0.09081379598350571 0.13891168235397183 0.024217885147160494 -0.021261964115147622 0.9994805765601277 1.6982839487370682
0.08718489947251742 -0.0914287743170142 0.14291626778979458 0.02260422286642626 -0.02176941819143119 0.9995074494670919 1.6038039175546794
0.07798198615226754 -0.0909340234434829 0.1432889470738057 0.02418739388922093 -0.026169604057280364 0.9993648591982475 1.493458986768408
0.07114211276237666 -0.08968379720329017 0.139034049720132 0.024605855676925976 -0.029042855670321478 0.9992752695833712 1.4065821154654725
0.06282530684852237 -0.0874835887433759 0.13894708920113996 0.02576719228395136 -0.03398499640322725 0.9990901219716241 1.2995519450148263
0.054377488056714794 -0.0844011915221431 0.13910550848445977 0.02402049906077917 -0.035768518629501846 0.9990713831853667 1.1785210298231175
0.0435688240085348 -0.07821330644148876 0.13712109593521463 0.02446962302299447 -0.043766296076491865 0.9987420832611679 1.019565302249548
0.039596306220625155 -0.07574530389770222 0.1430373477026506 0.02438185934104727 -0.0477717842493104 0.9985606549252333 0.9441097705897767
0.0449698390058952 -0.07959877616785693 0.14424147841376087 0.02254974991911948 -0.04154186002466017 0.9988822666582267 0.9978971032128198
0.04238727442881185 -0.078266882567597 0.15036233545630728 0.022496253411614365 -0.04253738503254794 0.9988415737528316 0.9741224092136715
0.03533182648683111 -0.07285542434698568 0.15136622350088352 0.023118682775550705 -0.04953183228115307 0.9985049444532536 0.8746444795920133
0.02883447992837162 -0.06601689407380272 0.14516763665559848 0.02404917664189532 -0.05952594857839872 0.9979370213338559 0.7702286166941155
0.021471909294375615 -0.05649836068985234 0.1426684238543414 0.0245740381075184 -0.07770882511875936 0.9966731937549801 0.6149879621819083
0.01792201115064683 -0.05114871380969868 0.14787878878064212 0.023453801893299216 -0.0865094254383941 0.9959749186034099 0.5289183410483077
0.015051144976451228 -0.0449874707484939 0.14461979107695502 0.023626134743213335 -0.10548825365769059 0.9941398463482621 0.44214946829447566
0.011845976136393294 -0.03635916445581893 0.14446708352553927 0.02492893357352346 -0.15147340752614674 0.9881469299063297 0.33207290076968
0.01261775304740612 -0.03953320169477801 0.14970811070566575 0.02392217829953259 -0.13551475034880278 0.9904864874511449 0.35403858503390473
0.010465194997338383 -0.03303369184555344 0.15237728359895014 0.024815032020628163 -0.18529060280509355 0.9823704019859009 0.27212477092670606
0.008898071567972751 -0.02477158761309115 0.15121168485216968 0.02528691749610996 -0.2958890394063591 0.954887557863609 0.18027321335244867
0.008558631533035665 -0.012611865695632805 0.1414103764973207 0.012758222562788914 -0.8818009298909923 0.47144919959675335 0.06159766518747133
0.009331784941357148 -0.0024136820617345826 0.14021526510676718 -0.023570096710284084 -0.4554140431661725 -0.8899676959463796 0.11780828809170532
0.010258497357369575 0.0042330043575902875 0.14638477223266666 -0.02776189417755845 -0.27934772988513773 -0.9597885824699595 0.2046904877005632
0.013222658851699638 0.01406971558621713 0.14476551301572343 -0.027546158207005088 -0.17058815084446538 -0.9849573046378716 0.3265338849966815
0.015910258386679987 0.020973511831762843 0.14877882118150823 -0.028408452719633683 -0.1338742997762342 -0.9905910516825293 0.42241848035803536
0.02230691657242575 0.031377479452718154 0.14321475919226132 -0.0280729030198024 -0.09561547261857786 -0.9950224085476501 0.5758527108805712
0.028925023230284452 0.038937959838492506 0.1353820189437048 -0.027977137536483034 -0.07583872332834783 -0.9967275293776082 0.7110058350831916
0.035316038431580134 0.044888130516396695 0.13308010710753124 -0.029208158776720942 -0.06658158756884373 -0.997353385544806 0.8282651147813967
0.04516799332656896 0.05141218136587936 0.12335409049464796 -0.030123985541115297 -0.05674850490333528 -0.9979339420454416 0.9768180188957585
0.05027998748208626 0.05391864036340235 0.11695487933571759 -0.02976705903365428 -0.05091338965045955 -0.9982593595608245 1.0602811121725069
0.05580319732670925 0.05678017417539148 0.12070420285269341 -0.030357018343703232 -0.047161388117377655 -0.9984258885406176 1.1453809331828817
0.0637144328272215 0.05952451819482223 0.11813091738917664 -0.029611923513564734 -0.041211933226933464 -0.9987115251890936 1.2491423093466218
0.07304564014018328 0.0620124467476043 0.12226754039458215 -0.028183085976459098 -0.034587558885976186 -0.9990042114201284 1.3729549786143935
0.08218466843227559 0.06304200871385081 0.1225249699600498 -0.027264737131196013 -0.029559321731277337 -0.9991911131550129 1.4948778783137675
0.08705268501997143 0.06347317427999684 0.12966801753011348 -0.027706885115214554 -0.02783047230181092 -0.9992285991346876 1.568365255521802
0.09994529754233537 0.06172752753228567 0.12377178621324327 -0.029751766852599594 -0.02541402752487435 -0.9992341865519381 1.725512609476092
0.10697797189581411 0.059859981221272666 0.11914845112139963 -0.027219738491894446 -0.02102133068154531 -0.9994084197628165 1.831021864976286
0.1151729563717725 0.05669875508997465 0.11417316387868187 -0.025127328197305634 -0.017316520889535152 -0.9995342692884258 1.9416007418786505
0.12658834355086432 0.04705059008384176 0.10947007260298332 -0.33173840343485594 -0.21092949232963001 -0.9194881081080153 2.062657736026209
0.12528153345574938 0.04763633765422641 0.0990315939822414 0.11950975602789504 0.07445448032337636 0.9900373470601647 4.17696145907312
0.13490099486778892 0.04308939072121067 0.10899974521928922 0.37500956376822275 0.1635938103928469 0.9124718583515419 3.948912438220142
0.14116068206933144 0.03326257051532062 0.09546056858618941 0.13863798561935964 0.05855764761791705 0.9886103938604237 3.8631911927278675
0.14381919969468981 0.035270512439372764 0.109954018641064 0.37999483586685595 0.1346409323342285 0.9151370083515862 3.774016767648727
0.14677651480502543 0.026263769698394255 0.09725908264643561 0.13917199472003786 0.04851343260762196 0.9890791690973335 3.7609415506078867
0.14585172286930773 0.02921603188641352 0.10754066904058923 0.3547233873138725 0.05735468240074475 0.9332104579885945 3.5048805507924823
0.15136883163822504 0.019541779294943218 0.10161672476647916 0.13053128275996334 0.022744499736890425 0.9911832686000894 3.5987336563769845
0.16037467135367334 0.026317626580599492 0.1077300261927088 0.05482520129963583 0.010846338879341612 0.9984370557202737 3.6546285329641144
0.16644866136808228 0.054854521155334526 0.1262798033568214 -0.02148075520907235 0.014084418751284305 -0.999670048718119 1.3644030804264484
0.1415985770953369 0.06746159196082886 0.13105923467772293 0.2733954262011503 0.09455459835168073 0.9572431085481072 4.144692162974525
0.14994005909269081 0.07148124402776676 0.13068007257730707 -0.13946928860305194 -0.05146883639414239 -0.9888878988119895 1.2102213783425795
0.10635522576021418 0.0601905767283251 0.13067080005129092 -0.05424753688681556 -0.027342599191159854 -0.9981530879635574 1.656975974539806
0.11434511194167307 0.05752434905105288 0.1265851143914335 -0.036163297749482994 -0.021561333404623174 -0.9991132692531397 1.879671304411076
0.1192783769059477 0.06227053322576366 0.14052641323497436 0.06300161739745705 0.19805861881932862 -0.9781633706680516 1.1203205277918231
0.08205020073397334 0.06589550982222603 0.14762783842721267 -0.004836996500844953 0.028965840172730458 -0.9995686987735953 1.395182977740636
0.07814857626747027 0.06388802395559587 0.13445088188629442 -0.019027529752955737 -0.010733998942986177 -0.9997613387094902 1.4433195107161745
0.07140937121012297 0.06229636685339375 0.12990641769257996 -0.02561459935621822 -0.02718702532608344 -0.9993021354694182 1.3939418240442425
0.0691500936095042 0.06207396665003154 0.13595020029772742 -0.028020638824586674 -0.03330652736326151 -0.9990523104596989 1.3683321832186328
0.057870305753570064 0.0581806134389802 0.12879707800084705 -0.028788670864191325 -0.040444190222421746 -0.9987669797841366 1.2301654373388122
0.046893902605463965 0.05294564763751151 0.1297345877658724 -0.028744319627889318 -0.04805438620100887 -0.9984310392090051 1.0763418465031855
0.05233560721793988 0.05616920908005839 0.13527307861932528 -0.02952466172865495 -0.04705703168324941 -0.9984557727405706 1.121228741727551
0.04580063786469868 0.05281605004777328 0.1374582044945991 -0.028922606838276903 -0.05017261395036928 -0.9983216874450167 1.0455606708333318
0.03938138370882948 0.04876063591307592 0.14065647379794244 -0.02864807560231033 -0.05565514930476886 -0.9980389732471113 0.9507754739247861
0.03189703050760674 0.04246280573215949 0.1416877959250357 -0.02985481601087894 -0.06799153330605226 -0.9972391094214308 0.8302914570392421
0.028620964131816366 0.03983346929066187 0.1497654699624696 -0.03040725174370694 -0.07558634942698467 -0.9966755253449825 0.7676812570493713
0.02214962340667004 0.03193667100254511 0.15096725843920167 -0.028566262580568758 -0.08569834784897619 -0.9959115230873343 0.6410370256182676
0.023290348806795442 0.033998377821567935 0.1562306716289602 -0.028695748733510617 -0.08531498865511455 -0.9959407144581451 0.6500953454116846
0.018421597883118583 0.026606361537692944 0.15565835843790432 -0.028280974406339157 -0.10123313309125859 -0.9944606775791366 0.5454824015034019
0.014304938797734323 0.01820480124747639 0.1542094902897199 -0.02777184194859116 -0.12649637875173692 -0.9915782323939345 0.4336150700881518
0.011024782035164545 0.008936532679381428 0.1538147326752815 -0.027665965395462396 -0.1762719786220592 -0.9839526329612627 0.315080093961064
0.009152422656314916 0.0022108077833649905 0.15801157914908698 -0.026983385389899202 -0.24280297412605423 -0.9697002695000363 0.22634315184880888
0.008400398751828115 -0.004738021891525087 0.153087451622788 -0.02584262128845559 -0.3976398446655417 -0.917177579784474 0.1407871596737852
0.008315412028561488 -0.009621544098620996 0.14754783665273735 -0.020610265495566295 -0.679784966090493 -0.7331218294618909 0.0807839523722798
0.00792722701025596 -0.015068278128565293 0.15399220850381992 0.004821176329896992 -0.9818278322701566 0.18971258270995436 0.056154569855918116
0.008212654271437001 -0.02241362323387301 0.15744390242080145 0.02184681961789195 -0.4757212335048454 0.8793247548347605 0.10855056715877802
0.008443477951230294 -0.02652578180964649 0.16381833151210354 0.022647084438050705 -0.29515892206429284 0.955179731931274 0.16374389501278236
0.011585862062006019 -0.03788524674689077 0.15765349726589892 0.023927670523048714 -0.16147549006358922 0.9865866067872928 0.30022323042681065
0.01598654569486032 -0.048473558607455565 0.15750724233645041 0.023693944787366878 -0.10871898610818455 0.993790108141564 0.4347964355160782
0.021257971074778736 -0.056860649045168694 0.15080428543745747 0.024858736721981804 -0.08581693648900096 0.996000751315093 0.5659168674000732
0.021714323422091498 -0.05819511085229749 0.15749467513443668 0.022604725300317784 -0.07336301864948606 0.9970490930183589 0.6009337946602461
0.026985607341227038 -0.06476689658811577 0.156460645015478 0.023687460694582198 -0.06596642234177934 0.9975406434473076 0.6908507993167075
0.030401031083917777 -0.06889075338207333 0.1614514672629715 0.02235079930045707 -0.056011254044949735 0.9981799342758514 0.7630419875698218
0.0367341645077294 -0.07447532979179451 0.1587338102947282 0.02335372507728953 -0.05082151182950166 0.9984346635911527 0.862677260112506
0.045018763079632755 -0.0803693301350814 0.156236970107954 0.021097748327293955 -0.03973724452730004 0.9989874055326702 0.9834529066459545
0.05132234463273957 -0.08353887934144646 0.15138010183039133 0.024903944801524587 -0.04100158170598922 0.9988486691340835 1.0885958341004285
0.05962576731893746 -0.08689631894705856 0.14845252027779182 0.026876063542965057 -0.038901763607462114 0.9988815395214107 1.2060597227673902
0.06780213401886985 -0.08932357323442436 0.147937937080021 0.025880853306386127 -0.033884654658083865 0.9990905922942303 1.306467376101336
0.07664058558282551 -0.09107814394822826 0.14987363477166682 0.024303233442903114 -0.02845099633170751 0.999299701617064 1.41900096542066
0.08505202514958204 -0.09183416579107964 0.15337636280446013 0.024274032911218477 -0.025482727272146063 0.9993805090840018 1.5254244673741582
0.09364695189213547 -0.09118736258368823 0.14579039562065213 0.02396141552708582 -0.022515867474500156 0.9994592969590154 1.636055238788334
0.1018632358356358 -0.09017779655087098 0.14980578106669165 0.024488011186276963 -0.020636229704376386 0.9994871101378592 1.7422902324664433
0.11011660932961619 -0.08805488079328676 0.14972138127666682 0.024471405273365197 -0.0184700765612701 0.9995298927974928 1.8501174763960835
0.11726913374524932 -0.08503624952104591 0.1422684551996643 0.024663302859208515 -0.016746730616692435 0.9995555354785081 1.9496942776036195
0.12244753144042694 -0.08226057906324506 0.1360342811606431 0.024502759074502587 -0.01527363915980546 0.9995830784604915 2.0280498669946803
0.1296216754155321 -0.0780684073171369 0.13657281740406932 0.026819492436669423 -0.01502085999985061 0.9995274326351951 2.118607536640164
0.12761845633224875 -0.07980293051140111 0.14414974741481035 0.025587053491923393 -0.014528002113458999 0.9995670261909367 2.1078390293570917
0.13306394414318792 -0.07650490759000136 0.14614914539495133 0.024364670828994166 -0.012997503477805717 0.9996186411420802 2.1635212689322505
0.14114591877125823 -0.0696566942304725 0.14036395986264605 0.018523111122404644 -0.008692615217462694 0.9997906444826478 2.2839688228200057
0.14532521785465013 -0.06609128300574395 0.14539747570286154 0.012689494589294897 -0.0053056250053638825 0.9999054090614625 2.3810668994410453
0.15048462825136977 -0.05849270323762473 0.13916256684106398 0.021792271964651982 -0.007144405304139671 0.999736992591286 2.494594342332869
0.1543124789627273 -0.05277636953073612 0.14256151722912602 0.02514810806611112 -0.007083396068230709 0.999658640817372 2.5845798693358333
0.15823919178521179 -0.045117213803175654 0.1423670623857048 0.026058964593987922 -0.005846107075420871 0.9996433130853983 2.6970361484109198
0.15742872399957353 -0.04758213318953525 0.14810056522063006 0.025185275407538822 -0.005801154882353307 0.9996659684638052 2.6871726821409587
0.1520417143134458 -0.056634727954550705 0.14644057868698365 0.025577128126337674 -0.0075000610891850245 0.9996447166871175 2.5706694916703228
0.14835077134886063 -0.062318962281166526 0.1516475151735451 0.021738517060875043 -0.007150901165091687 0.9997381164527644 2.49973664528382
0.14272943700120758 -0.06994774522447296 0.1505857643979246 -0.005173318338831054 0.002916858544689603 0.9999823642012869 2.3790421545598357
0.13765937980270124 -0.0737892942004247 0.1548807067701311 0.014551849072551694 -0.006605991268340081 0.9998722941295715 2.303710402205627
0.12938331424874086 -0.07927225181920552 0.15196129253360835 0.022471455761847753 -0.012224901255057135 0.9996727391828024 2.1663262489967363
0.12104277021234502 -0.08379588355605362 0.15114532495427438 0.02478628649258292 -0.015202510345713925 0.9995771724489791 2.0514207847346233
0.11923846968807168 -0.08506589117771368 0.15904098855620571 0.024873051875972756 -0.015830606394671508 0.9995652670994286 2.01109251053184
0.12661160502389446 -0.08132782609056106 0.1601532364991485 0.024854877401332593 -0.014611423172143022 0.9995842842813452 2.0808236425235416
0.13392033297187647 -0.07674201161139096 0.16134426939222657 0.022868143155347624 -0.011911450284926522 0.9996675274213603 2.1870982719224794
0.14056454291647658 -0.07117718896062356 0.16064082828276374 0.02258462740184017 -0.010380534089298257 0.9996910418309953 2.28332935714703
0.14686630982121646 -0.06473554867615343 0.15916013605980872 0.020593024989729678 -0.007983266390055997 0.9997560676382602 2.40934042149232
0.15526121596424913 -0.05264330743447553 0.1562734451012578 0.022922131868781115 -0.00659326456012121 0.9997155118997757 2.578148867445569
0.15943450412206633 -0.043793893738833314 0.1533248580874237 0.024619915270172175 -0.005347261620751438 0.9996825829058186 2.7098633898736106
0.16250937648426664 -0.03253889435919678 0.14265611128067657 0.027396056367456068 -0.003872611997843855 0.9996171562012256 2.8545469007006328
0.1643506743290866 -0.02160654536537426 0.13974096464997254 0.025555760110578737 -0.001550187619057439 0.9996721962941234 3.0252428932878406
0.1644991808295175 -0.023268695476563295 0.14579108175102073 0.023495752140157564 -0.0013128495097112754 0.9997230746849516 3.03160642326681
0.16309826666846894 -0.03158264125796798 0.1480705509288255 0.02527105237916516 -0.002715047058443362 0.9996769490345969 2.9301084008478724
0.164254529933141 -0.028155753641491577 0.1567457561987619 0.02463886457495146 -0.0022974975853803778 0.9996937770424013 2.9573446719459415
0.16527222147448645 -0.013879288327610205 0.15333525007229404 0.02689184959186549 -0.000347802035345331 0.9996382883119639 3.1123584034187646
0.16448494231537839 -0.006573381291324632 0.14809273384150215 0.030279947700674992 0.0012336576449112923 0.9995406959479237 3.2176100750253407
0.16321919865415463 -0.0021606867457974986 0.132541838618085 0.025013073783569997 0.001843612465614577 0.9996854241375004 3.294514040428849
0.16072171852843134 0.0073017902300671995 0.12853872499290403 0.028184182742768175 0.0036870592713079773 0.9995959470891488 3.399021346267158
0.15891066842334406 0.01126366002884028 0.119247102713394 0.026965400285221947 0.004444657530452359 0.9996264863472231 3.4691810975928985
0.16788992725752916 0.03164320562958167 0.1276501677060148 0.28527740371272575 0.15041984810520928 0.9465678381536804 3.8733165666639233
0.1374465840449811 0.02966155639772393 0.10602965345352185 0.4092351668483313 0.18390255044103798 0.8937037709195927 3.858930474418513
0.13661538918616362 0.03934278038508361 0.09758094495992949 0.14432148441162015 0.06512069447910265 0.9873857423964484 3.9823714525594016
0.1445863605646974 0.04714604338424709 0.1037974567876298 0.10942468710347751 0.048500625916579006 0.9928111235970345 3.9686102216959376
0.15090482041108183 0.06370610523843086 0.11751960329919686 -0.06793776057154632 -0.050328359139561345 -0.9964193479428441 1.319652257628884
0.11972146486088918 0.055508033305245445 0.11782949093462676 -0.06096524118748824 -0.040085829917282934 -0.9973346307066621 1.8066411694624285
0.13169953223306535 0.060021480994781905 0.1089824709307865 -0.04466310582825242 -0.02555161693316384 -0.9986752834880191 2.0731775747644754
0.14938394649918527 0.07772980908798884 0.1366894828519878 -0.012738706415292992 0.011182756706664023 -0.9998563253344476 1.178923778648603
0.10041233873786282 0.06283524719460788 0.13852532596172584 -0.02417519830193391 -0.014650831079557877 -0.9996003766184466 1.5911671005737278
0.1075378665249368 0.06086351109305976 0.13798328734440318 -0.02684417269751721 -0.018790063774083668 -0.9994630177728199 1.7877894593200803
0.1217304158775466 0.06285841981226316 0.1511072789690136 0.02127924795328205 0.24360089831697526 -0.969642096830426 0.7927632254820032
0.07876512922875377 0.06583411156996129 0.1566911313029527 -0.020498999224018807 0.02326114862284378 -0.9995192394324182 1.2869421042392153
0.07674217342652627 0.06397011538340706 0.14129303653327338 -0.025457331743960823 -0.014807812194626752 -0.9995662324020788 1.4023635831849282
0.08607450046271461 0.0640000558240041 0.1376065764434013 -0.027471477275568007 -0.023712581073605278 -0.9993412987739101 1.5426368841320968
0.08918166523963131 0.0645598383410141 0.14966596443791816 -0.027336709551108614 -0.02521364516331062 -0.9993082489444871 1.5979444041692727
0.1036999699824062 0.0621940465659521 0.14529775400025985 -0.029475253970908645 -0.02375034948025119 -0.999283308327982 1.765326397776057
0.11419214294623507 0.05819716976327167 0.13397533974811662 -0.029076846295199164 -0.02047922334375739 -0.9993673690994526 1.9100510450025834
0.14322114604514602 0.07453200459286743 0.144906190321749 -0.13454260768845885 -0.07528385888003512 -0.988043838758443 2.0758732899402847
0.14722669685014683 0.07595265148811724 0.15743509718935803 -0.28517515976363017 0.18773246645905087 -0.9399104474847534 0.3798508950247709
0.11056984432024762 0.060864980191478485 0.15554442950896802 -0.05584439267499491 -0.0016378989829828705 -0.998438140844831 1.4402468007527727
0.14227512277275955 0.07726208355885174 0.1596763252125165 -0.08519190444935734 -0.050838152813522254 -0.995066742301641 1.7673393493224223
0.14495094874125 0.08092492215592302 0.17726590760174385 -0.03822480095503835 -0.017881992212384692 -0.9991091526687482 1.094033858202099
0.09905718534843456 0.06447328907866248 0.16595147189836312 -0.031906999126329466 -0.023477943997291955 -0.9992150567082205 1.5400297391775342
0.10158721257813998 0.06328431419093045 0.15481694972214097 -0.02849602252498753 -0.02245594581947976 -0.9993416368778039 1.7102178722648511
0.11301955533194744 0.05931934408726468 0.14453438052263176 -0.029911349171334957 -0.02119335541496083 -0.9993278505460585 1.876872370151897
0.11787341624261927 0.06369544253093695 0.14768842276756494 0.14317848180830878 0.30473044687345435 -0.9416152489713474 1.2885022271050857
0.09265788715916481 0.06762637449209405 0.16229701081019396 0.01707343989897464 0.06290939179515605 -0.9978731913795358 1.5398491814324755
0.08621622681682911 0.06585450509256649 0.1595841031388981 -0.015527323954120776 -0.0021405426523333835 -0.9998771525982467 1.557720877526281
0.07840521985781175 0.0652312074166618 0.16239476684581305 -0.02331439437002886 -0.02114169061664861 -0.9995046112615132 1.4907769927087284
0.06898964349664244 0.06271371403824436 0.14713092590063495 -0.02751042396141017 -0.03226059483052303 -0.9991008110269175 1.3784988207629956
0.06238585393610458 0.06050321174083085 0.1409767880339057 -0.029484325705420582 -0.03898140896087067 -0.9988048479523526 1.2888788767725508
0.05700828652886608 0.05894970100300534 0.1464566533627544 -0.02910662568944912 -0.04183608724339078 -0.9987004286296955 1.213914379367491
0.05069058476358145 0.055886644867425735 0.1435333533499535 -0.029803351929818388 -0.04717247461096378 -0.9984420453150125 1.127823017355996
0.047624782915192565 0.05464776346151098 0.14901688021414453 -0.029548834534694163 -0.04928760719638207 -0.9983474335893774 1.0809228557404156
0.04043034021443277 0.050088830045688655 0.15026596533082376 -0.034421734413947684 -0.06543470965490814 -0.9972629758355184 0.9767489395026009
0.03948433905655192 0.050022791083169815 0.15749919910205898 -0.0302324144768266 -0.05861688016149468 -0.9978226608345965 0.9547711117719839
0.05062539751957844 0.05667836768751508 0.15598426613880198 -0.030079493786945632 -0.05017094606170198 -0.9982875839279957 1.0838221547083315
0.059720503854715744 0.060344352548228807 0.1524359757873555 -0.028595791679130476 -0.04171123788211399 -0.9987204079884346 1.2074176132552978
0.06604175543255497 0.062570839913222 0.1572769483153477 -0.028775903759533875 -0.03807335582338368 -0.998860534278519 1.297221315350095
0.06045475650922338 0.06114330300224073 0.161488786017531 -0.029182463247603974 -0.040381583972542164 -0.9987580845803807 1.2529793947276175
0.05157745755455148 0.057602611968124016 0.16228517825528804 -0.02886652440183579 -0.044626671461784145 -0.998586593122099 1.1480585180341105
0.04903091669156836 0.056768932955456305 0.16865896656601842 -0.02831328595958901 -0.04583576792861291 -0.9985476654704897 1.1068935413339978
0.041906590352186246 0.05229724086941233 0.1660145634991606 -0.030581419738511313 -0.055524596330855255 -0.997988875674009 1.0107949660771278
0.030943295114541323 0.043117612992961865 0.1606490461003188 -0.028636420091070824 -0.06390720242280555 -0.9975448987002331 0.8377093699873741
0.029000377990112285 0.041564275788634045 0.16692427940223659 -0.030360724012701408 -0.07321022183417279 -0.9968542972051712 0.7878275138361958
0.02363147447496718 0.0353343824370788 0.16679677311544155 -0.03039968935617101 -0.08537385506160847 -0.9958851157432607 0.6858613735535047
0.019850622887135193 0.02960595100858523 0.16206209318812112 -0.02854728643689506 -0.09295591283960354 -0.9952608957983057 0.5950400108564405
0.017801765642627403 0.027228298873470006 0.1691110915179465 -0.02553923281843737 -0.09132496003050303 -0.9954935957917925 0.5435025494000308
0.014362185576908514 0.020323682411509905 0.1678400234293841 -0.026813321231457216 -0.11681996478976682 -0.9927910865993189 0.4544754880779749
0.011716225866504316 0.012495861807192537 0.16147194393700456 -0.028349859049313756 -0.1618302753547207 -0.9864112973149178 0.353730618150505
0.010367491441663964 0.009405203089647495 0.16782874653693897 -0.02810582668493789 -0.18749008185978538 -0.9818643143075154 0.30321627969749076
0.008498045031142586 0.001231369088387474 0.1661918348911884 -0.02656471165128748 -0.26110415984525537 -0.9649450418580259 0.20718384551692756
0.007657041876528837 -0.00734096951127914 0.16211301676042789 -0.02394400338062306 -0.4962522917458885 -0.8678481132312627 0.10910476743464513
0.007373185326454747 -0.016532338794826993 0.16444202395652374 0.006330170274554331 -0.9550155700534216 0.2964880940271184 0.05518982550580098
0.007209021534468431 -0.020903528873162654 0.1726385457065825 0.020132610307153572 -0.514969337188936 0.8569721464303307 0.09529367025382311
0.00988152432969469 -0.033432211835534395 0.16502616595682618 0.024574086571168975 -0.21455569961351945 0.9764025635118672 0.23440116369414188
0.012414055990119141 -0.042036220196554175 0.1703087828814595 0.02351081833371028 -0.1363911292949887 0.990376040335648 0.3488180454546014
0.015461452409473097 -0.048331098742640875 0.16693009235251519 0.025737776931853668 -0.11586645640250559 0.9929312821738131 0.4392258094357775
0.02332816207072405 -0.06084878694802645 0.16396414717625288 0.023785459252404283 -0.07639543276330822 0.996793855208317 0.612615361835689
0.02557390698907517 -0.0640912421133468 0.17120026305451772 0.02587245412719533 -0.07288734680422512 0.9970045390033473 0.6842175073122798
0.03210778673242266 -0.07100424539458598 0.169240849835954 0.0245228782348553 -0.059413971280627385 0.9979321662616869 0.7878284342610674
0.03839564332583069 -0.07625389691491614 0.16668244897882334 0.023735043730729745 -0.0500922493830672 0.9984625252110593 0.8896390240605542
0.045362784906524276 -0.08089978115653769 0.1628240387669615 0.022374495820551482 -0.041556453799657285 0.9988856005991742 0.9936904219524976
0.05525860222286748 -0.08569197086773347 0.15906458049734046 0.027877000029825755 -0.04311938594604701 0.9986809257340269 1.1394972608411444
0.06537287262545032 -0.0890251659730072 0.1550184252264386 0.025950921769472293 -0.035427108717239766 0.9990352694611195 1.2668585125630332
0.07480306860345029 -0.09126441704041009 0.15816553172191095 0.023209526163577198 -0.02801044261120728 0.9993381474756111 1.392943569758454
0.08469557838146147 -0.09223052487854215 0.16143508563452638 0.023015899503556224 -0.024302538018305623 0.9994396705233943 1.5207256421729307
0.0937804093766853 -0.09171547448032388 0.1560756833545115 0.02220050446233056 -0.020879930752547148 0.9995354751550276 1.636606827950743
0.10411742492010391 -0.09015122371007031 0.1580189507424457 0.022467397270725657 -0.018436616471339307 0.999577564390562 1.7692776465686937
0.098058719441248 -0.09152608569980258 0.1638900725205444 0.023652411992885862 -0.02037455910902136 0.9995126015954136 1.720745927212366
0.10505037598595189 -0.09032749753422756 0.1662739728543088 0.022795408356199337 -0.01829723491277532 0.9995726989831308 1.791420048310036
0.11432267306829562 -0.08743954087141123 0.1660360024011883 0.02474226667074282 -0.01766627317050302 0.9995377546807619 1.899938232058493
0.12268205273121213 -0.0839762712710645 0.16844162332213428 0.02307033270072203 -0.01472286916384086 0.9996254282843462 2.0097349297718887
0.12106776640160331 -0.08508326317080667 0.1740847486108075 0.022584887401079324 -0.014334561998177708 0.9996421575710986 2.0116590591686405
0.1145344547958542 -0.08797477055560843 0.17745648477951909 0.023063619154207873 -0.015765182469931627 0.9996096880749004 1.9426724937607853
0.10839440852501704 -0.08973206530161783 0.17330409295710866 0.02449505764115538 -0.01823973136919357 0.999533543384481 1.863296580845
0.1024728576127462 -0.091459790409365 0.1780554962601132 0.022701283837709526 -0.018271463888952733 0.9995753124799924 1.784117557704205
0.0904347956815569 -0.09256986552819021 0.17033981581032848 0.023723221744702615 -0.02193610270611396 0.9994778717651125 1.6499508434706875
0.0800677090419418 -0.09241169734153652 0.16979034222698283 0.02333069824147183 -0.024485931262455768 0.9994278951929326 1.5211101226279942
0.06641819283183882 -0.08978653301866675 0.1633828666081429 0.024388769168333078 -0.030539842677666892 0.9992359610961151 1.3498069559652972
0.06667858172315236 -0.09005144660231915 0.16838865881222118 0.02510613236786935 -0.03205668916924911 0.999170681513941 1.3303799847032722
0.059140531316372 -0.08796157998373282 0.17021253444454512 0.021046583457365393 -0.02899305462967812 0.9993580159822668 1.2480538914868704
0.05116156482199778 -0.08463116876631242 0.17356319959568509 0.02397039974565129 -0.03743734195831989 0.9990114440601415 1.1424353352858632
0.041305215105493155 -0.07881942671582576 0.17424634897862348 0.023658164467789643 -0.04333146903355289 0.9987805940472658 0.9990313070071345
0.033127840523217426 -0.07234960851781924 0.17532584227642023 0.024421687702509864 -0.052979404909373265 0.9982969316917735 0.8656177286666721
0.033909931386118176 -0.07351693426834807 0.1822030430732083 0.023474841784413204 -0.051320235041165174 0.9984063127196844 0.8594711343209542
0.03975958848741268 -0.07817359393858282 0.18166807017202702 0.02278651220258388 -0.045391044359401875 0.9987093811282661 0.9331188560807123
0.046340394806194764 -0.08267138763615735 0.18616592785003236 0.023715272811038177 -0.04241416898037843 0.998818614216416 1.020438038022226
0.05314740001392293 -0.08606092823486915 0.18256547874688625 0.02465979373327245 -0.03803371429398369 0.9989721373241779 1.1501182721052268
0.05961396919211606 -0.08860319583188679 0.17834337877381362 0.019441673911666058 -0.027773176913606527 0.9994251707654944 1.2322281937705426
0.07078209854937932 -0.09137860940252987 0.17546838783705102 0.02336319442666906 -0.02892141954567721 0.9993086173138129 1.3550592274128632
0.068617141416512 -0.09118939251211956 0.18110802780224092 0.02305686650539451 -0.028973999204580145 0.9993142089838638 1.3430615099483203
0.0762025907730525 -0.09262963546288248 0.1821951737952929 0.02087774333321266 -0.02432422196633204 0.9994860939798238 1.4232673758098138
0.08353427485740704 -0.09296759533877602 0.17741492843136708 0.023222764361380717 -0.024585392104448035 0.9994279672445066 1.5126356607994893
0.08991392014592528 -0.0931919199197704 0.18167506684410867 0.021499716613794004 -0.02105662119983023 0.9995470878798923 1.5947311240977
0.08427612911902967 -0.09355623918534624 0.18842862754609543 0.021010126984484633 -0.02149863326762128 0.9995480895543346 1.5478865578643792
0.09108716847618369 -0.09352111233085561 0.19053836988017228 0.022104909044962137 -0.02115669180775878 0.9995317740761748 1.6144324916818864
0.10191807818964758 -0.09186008232608048 0.1853974012089788 0.024526828823002198 -0.020751607938135862 0.999483769470955 1.7335368488246552
0.11071265423591699 -0.08963074601931348 0.18433427086755744 0.02286144712681974 -0.017373382676201532 0.9995876748988324 1.8456677458446777
0.11967681096857331 -0.08612844043534458 0.18231753316349078 0.022961785425304915 -0.01537077666815272 0.999618174922155 1.9641556212449776
0.13162939450774588 -0.07897082750677972 0.17316524426140756 0.023493839939128576 -0.013131039178593188 0.9996377420320848 2.1229816804350183
0.13819861691830654 -0.07363936772871289 0.16709401885559028 0.023656553504255703 -0.011483608705132613 0.9996541873104957 2.238709381413393
0.14296572790329767 -0.06962582022245467 0.17216353060468967 0.02343518736050511 -0.010157045592914015 0.9996737599928295 2.3251127229554447
0.1486774569460107 -0.06291945602249405 0.16673520457640176 0.024896834381510358 -0.00920252493342521 0.9996476685175779 2.43227842258302
0.15550158966530409 -0.05290340677749881 0.16400822282465446 0.023546588453383203 -0.006849901022314222 0.9996992732958203 2.5803394948753495
0.15961941988278755 -0.044351070930411365 0.16157391657509446 0.02472354274238359 -0.005499357491991882 0.9996792002944949 2.7038754188502776
0.16276336866530536 -0.03574347794333617 0.16271881551790374 0.025010243045387168 -0.003949572097942442 0.9996793929170761 2.8287064690247408
0.16199513701163315 -0.03914796725213726 0.16796723934699323 0.023949487859552702 -0.003986854351971635 0.9997052200642154 2.8111525625358555
0.16484862436416786 -0.02792610805016009 0.1672468532110664 0.024783742957408948 -0.002501536914124434 0.999689706057879 2.9393997092307127
0.1657643826109311 -0.01903434763425222 0.16512208597698208 0.027167276877945016 -0.0011988917542160291 0.9996301824803006 3.049702842028
0.16544689184726938 -0.008179675400725478 0.16129803409769494 0.028738251521904457 0.0006519884032211787 0.9995867585210331 3.1836545569339894
0.1644535736020036 -0.002640792016626871 0.15509470904186726 0.028978859096089195 0.0018400290422157604 0.9995783311069787 3.2675193188393377
0.16325073943993598 -0.00019646353113312394 0.1426697112044795 0.02988623297479184 0.00246006228440951 0.9995502794617853 3.305226519620107
0.16221002558109376 0.003407821304230471 0.13645545290482533 0.02787904919019869 0.002929561293174576 0.9996070109232327 3.3526373047310614
0.15934152130782803 0.012296089260945782 0.13357237106314263 0.02917768521546709 0.004859857785764441 0.9995624264985999 3.4706150088285908
0.17400510367150804 0.026005365339000296 0.143245424230412 -0.1287441751726472 0.28185434351129 0.9507802408563897 1.8168781274415604
0.16322970699191222 0.005940296189101028 0.15548910612854472 -0.012885048804312087 0.07955629375269316 0.9967470951257623 2.9183098113293107
0.18044525655388968 0.038443508909680624 0.15794464523612134 0.0676586887704847 0.038115248097634495 0.9969802052680458 3.4215046210652917
0.17895953160357925 0.06491086677050564 0.1748667131019729 0.06053081150234125 0.028079891074186486 0.9977712867065928 3.767530580067237
0.17213140199380633 0.07407413102496925 0.18435011222465209 0.05330923967388869 0.023888386507220142 0.9982922768185044 3.903915431861348
0.1753853582531707 0.07241882895961346 0.1925294450069248 0.042075455570980066 0.01748794933901113 0.9989613744617007 3.8976473942893293
0.18678470262187633 0.057117129304132236 0.18994433120407947 0.012715582488752203 0.005075010017176292 0.999906274725435 2.8801772815960893
0.1783826146399335 0.03386390496071468 0.19645950905890822 -0.0011751926525572758 0.009309028069130854 0.999955979490416 1.8924396432777006
