1.548985999999999939e-02 -2.314041000000000015e-02 -8.251938999999999802e-02 6.048629999999999979e-02 4.477999999999999758e-01 -8.920749999999999513e-01
-3.067044999999999841e-02 -6.883943999999999697e-04 -8.205418000000000434e-02 2.670660000000000256e-01 2.992290000000000227e-01 -9.160439999999999694e-01
-2.590833000000000025e-02 -5.053430000000000248e-03 -8.232876000000000083e-02 2.190660000000000107e-01 3.307720000000000105e-01 -9.179169999999999829e-01
2.093184999999999837e-02 -2.087434999999999985e-02 -8.138115999999999406e-02 -2.707659999999999928e-02 3.746369999999999978e-01 -9.266550000000000065e-01
1.290879999999999979e-02 -2.052897999999999876e-02 -8.152399000000000451e-02 9.417799999999999783e-02 3.596860000000000057e-01 -9.280500000000000416e-01
1.118904000000000079e-02 -3.553698000000000100e-03 -8.120789000000000479e-02 -5.024760000000000337e-02 -2.000339999999999896e-01 -9.784129999999999772e-01
-1.960297000000000081e-02 5.606864999999999939e-03 -8.069908000000000636e-02 3.518670000000000109e-04 6.252770000000000550e-02 -9.980210000000000470e-01
-2.447165999999999925e-02 -1.368731999999999935e-02 6.629770000000000107e-02 -6.524809999999999777e-01 -3.394059999999999855e-01 6.774059999999999526e-01
-2.408499999999999877e-02 1.521700999999999956e-02 6.368711000000000511e-02 -5.381329999999999725e-01 4.013010000000000188e-01 7.410440000000000360e-01
-1.888137999999999969e-02 2.007190000000000016e-02 6.415495000000000225e-02 -4.417769999999999753e-01 5.275189999999999602e-01 7.256200000000000427e-01
-1.588202999999999837e-02 1.824581000000000119e-02 6.773297999999999819e-02 -4.696089999999999987e-01 6.104479999999999906e-01 6.378040000000000376e-01
-8.451121000000000674e-03 1.529350999999999974e-02 8.698477000000000292e-02 -7.737389999999999546e-02 1.814590000000000092e-01 9.800079999999999902e-01
-5.288354000000000318e-03 1.460330999999999955e-02 8.708340999999999998e-02 4.730530000000000151e-03 2.017640000000000058e-02 9.997359999999999580e-01
6.764911999999999662e-03 2.296267000000000100e-02 6.681481999999999699e-02 2.381030000000000091e-01 7.609890000000000265e-01 6.033819999999999739e-01
2.077150999999999997e-02 1.100410999999999924e-02 6.800137000000000542e-02 6.631439999999999557e-01 4.039059999999999873e-01 6.301470000000000127e-01
2.586106000000000169e-02 3.042131000000000002e-03 6.566635999999999307e-02 7.219879999999999631e-01 1.311319999999999986e-01 6.790810000000000457e-01
1.458570999999999999e-02 8.353061999999999640e-03 8.695205000000000295e-02 1.214149999999999952e-01 7.378110000000000224e-02 9.897449999999999859e-01
1.645015000000000019e-02 1.466876999999999938e-02 6.953317999999999999e-02 5.609049999999999869e-01 5.411789999999999656e-01 6.262839999999999518e-01
1.282134000000000051e-02 1.532501999999999996e-02 7.188102999999999854e-02 4.610440000000000094e-01 5.653049999999999464e-01 6.838689999999999491e-01
6.956435999999999870e-03 1.470138000000000000e-02 8.698741999999999586e-02 4.193029999999999674e-02 8.413329999999999420e-02 9.953340000000000520e-01
3.504775999999999812e-03 1.752201999999999926e-02 8.648487000000000535e-02 1.820420000000000094e-01 6.082889999999999686e-01 7.696640000000000148e-01
-5.671795000000000309e-03 2.283030999999999949e-02 6.783569999999999878e-02 -1.587099999999999900e-01 7.625309999999999588e-01 6.270390000000000130e-01
-1.465759999999999980e-03 1.686553999999999831e-02 8.696027000000000617e-02 1.929490000000000068e-03 1.124229999999999952e-01 9.930179999999999563e-01
1.592150999999999983e-03 -2.623454999999999884e-02 6.864539000000000057e-02 6.618209999999999371e-02 -7.687749999999999861e-01 6.360479999999999468e-01
1.093369999999999932e-02 -2.568424999999999875e-02 6.631546000000000662e-02 3.249210000000000154e-01 -6.592080000000000162e-01 6.780049999999999688e-01
6.520192999999999649e-03 -1.870956000000000008e-02 8.710571999999999759e-02 1.165970000000000062e-01 -2.728010000000000157e-01 9.525540000000000118e-01
2.453547000000000020e-02 -1.061267999999999934e-02 6.596206000000000291e-02 6.881369999999999987e-01 -2.316600000000000048e-01 6.875160000000000160e-01
2.283431000000000002e-02 -1.362906000000000013e-02 6.631586000000000425e-02 6.648560000000000025e-01 -3.427979999999999916e-01 6.636309999999999709e-01
2.026365999999999931e-02 -1.254870999999999938e-02 6.958401999999999643e-02 6.833129999999999482e-01 -3.537339999999999929e-01 6.386619999999999520e-01
1.230440000000000006e-02 -1.431911999999999942e-02 8.712224000000000357e-02 9.311940000000000495e-02 -8.610059999999999936e-02 9.915690000000000337e-01
1.695378999999999983e-02 -5.662943999999999834e-04 8.705928999999999751e-02 4.331329999999999902e-02 -3.406549999999999834e-04 9.990160000000000151e-01
-2.739996999999999919e-02 -6.966474000000000277e-04 6.606913000000000369e-02 -7.212399999999999922e-01 5.545630000000000004e-02 6.903719999999999857e-01
-1.889013999999999971e-02 1.479708999999999896e-04 8.724666000000000365e-02 -2.872290000000000121e-01 4.149379999999999735e-02 9.566740000000000244e-01
-1.787541000000000130e-02 3.479536000000000087e-03 8.721334000000000031e-02 -6.431309999999999805e-02 5.494650000000000228e-02 9.961839999999999584e-01
-2.639056000000000041e-02 6.928163999999999677e-03 6.556502000000000163e-02 -6.757589999999999986e-01 2.345510000000000095e-01 6.987280000000000157e-01
-2.557347999999999913e-02 1.007478000000000019e-02 6.508129999999999471e-02 -6.303870000000000307e-01 3.169629999999999947e-01 7.085799999999999876e-01
-1.885743999999999962e-02 1.659143000000000076e-02 6.685918000000000416e-02 -5.433940000000000436e-01 5.278439999999999799e-01 6.526950000000000252e-01
-8.868447999999999262e-03 2.212994000000000072e-02 6.764245000000000674e-02 -2.524609999999999910e-01 7.329409999999999537e-01 6.315129999999999910e-01
-1.118186000000000006e-02 1.855309000000000125e-02 7.054863999999999580e-02 -3.574459999999999860e-01 6.769519999999999982e-01 6.432430000000000092e-01
-3.099704000000000001e-03 2.110686999999999980e-02 7.045933999999999531e-02 -8.240880000000000427e-02 7.727209999999999912e-01 6.290999999999999925e-01
3.281927000000000021e-03 2.079987999999999976e-02 7.057877999999999374e-02 1.421540000000000026e-01 7.640689999999999982e-01 6.292389999999999928e-01
6.779694999999999645e-03 1.980403000000000024e-02 7.065739000000000047e-02 2.528619999999999757e-01 7.411609999999999587e-01 6.218679999999999763e-01
9.505111999999999589e-03 1.766010000000000149e-02 7.172496000000000427e-02 3.583709999999999951e-01 6.687650000000000539e-01 6.513759999999999550e-01
1.642655999999999977e-02 1.180343000000000017e-02 7.180253000000000330e-02 5.792119999999999491e-01 4.683780000000000165e-01 6.669659999999999478e-01
1.996043000000000123e-02 8.042561999999999628e-03 7.058654000000000317e-02 6.948790000000000244e-01 3.349130000000000162e-01 6.363480000000000247e-01
2.501688999999999996e-02 -5.604333999999999878e-03 6.671159999999999590e-02 7.445850000000000524e-01 -1.059849999999999959e-01 6.587429999999999675e-01
2.229311000000000140e-02 -3.140486999999999966e-03 7.029903999999999320e-02 7.604929999999999746e-01 -5.914069999999999744e-02 6.465840000000000476e-01
2.202691000000000024e-02 -8.463102999999999598e-03 6.957364000000000603e-02 7.439379999999999882e-01 -2.115080000000000016e-01 6.337530000000000108e-01
1.582594999999999835e-02 -5.292009000000000296e-03 8.712804000000000382e-02 2.690789999999999849e-02 1.635680000000000120e-02 9.994690000000000518e-01
1.559440999999999952e-02 2.835074999999999835e-03 8.706326999999999816e-02 3.373099999999999710e-02 1.423669999999999970e-02 9.993079999999999741e-01
2.053106999999999849e-02 1.612586999999999961e-03 7.209775000000000211e-02 7.026940000000000408e-01 9.415129999999999333e-02 7.047259999999999636e-01
1.955780000000000018e-02 -1.647037999999999974e-02 6.785090000000000565e-02 6.278470000000000439e-01 -4.428259999999999974e-01 6.399510000000000476e-01
1.709681000000000048e-02 -1.925139999999999837e-02 6.805049999999999988e-02 5.566990000000000549e-01 -5.295520000000000227e-01 6.400280000000000413e-01
1.031959999999999995e-02 -2.183094000000000007e-02 7.063572999999999380e-02 3.669959999999999889e-01 -6.619040000000000479e-01 6.535710000000000131e-01
1.332729000000000032e-02 -2.027817000000000161e-02 7.019991000000000425e-02 4.754450000000000065e-01 -6.007900000000000462e-01 6.425809999999999578e-01
1.137969999999999954e-02 -1.116675999999999953e-02 8.722842999999999569e-02 2.830270000000000008e-02 -9.972119999999999249e-03 9.995260000000000256e-01
1.426837000000000071e-02 -8.325460999999999279e-03 8.717785999999999591e-02 1.540189999999999962e-02 1.084919999999999982e-02 9.997960000000000180e-01
1.691985999999999837e-02 -1.459741999999999984e-02 7.166322999999999444e-02 5.946129999999999471e-01 -4.218509999999999760e-01 6.843120000000000314e-01
1.535211000000000041e-02 -1.763075999999999879e-02 7.086670000000000469e-02 5.470669999999999700e-01 -5.183010000000000117e-01 6.572810000000000041e-01
1.168313999999999984e-02 -1.852242000000000124e-02 7.278956000000000315e-02 3.992410000000000125e-01 -5.091240000000000210e-01 7.619230000000000169e-01
5.268623000000000056e-03 -2.395254999999999954e-02 7.058731999999999507e-02 2.043280000000000096e-01 -7.369710000000000427e-01 6.442050000000000276e-01
1.736424999999999991e-03 -2.409676999999999999e-02 7.117850000000000565e-02 8.911349999999999827e-02 -7.524939999999999962e-01 6.524010000000000087e-01
-2.152483000000000174e-03 -2.549001000000000045e-02 6.958638000000000323e-02 -5.673559999999999715e-02 -7.711470000000000269e-01 6.340479999999999450e-01
-1.725513000000000047e-02 -2.128481999999999943e-02 6.726967999999999837e-02 -5.027120000000000477e-01 -6.049539999999999917e-01 6.174490000000000256e-01
-5.340725999999999633e-03 -2.425880000000000050e-02 7.051374000000000530e-02 -1.531440000000000023e-01 -7.536260000000000181e-01 6.391550000000000287e-01
-8.442098000000000310e-03 -2.324172999999999864e-02 7.066521000000000607e-02 -2.621100000000000096e-01 -7.204220000000000068e-01 6.419010000000000549e-01
-2.660832000000000128e-03 -1.898791000000000020e-02 8.733235000000000303e-02 2.813150000000000026e-02 -1.898920000000000122e-02 9.992929999999999868e-01
6.939062999999999872e-04 -1.856812000000000046e-02 8.727503999999999817e-02 8.679809999999999609e-03 -1.902399999999999924e-02 9.997460000000000235e-01
2.490997999999999910e-03 1.389148999999999939e-02 8.707784000000000357e-02 1.907199999999999868e-02 2.749909999999999854e-02 9.994150000000000533e-01
9.250177000000000052e-03 1.235552999999999998e-02 8.702638000000000040e-02 1.733820000000000153e-02 2.882749999999999896e-02 9.994140000000000246e-01
-1.825846999999999887e-02 1.369688999999999976e-02 6.972675000000000400e-02 -5.829940000000000122e-01 4.961119999999999974e-01 6.434079999999999799e-01
-1.294935000000000010e-02 9.605999000000000482e-03 8.716301999999999384e-02 1.580639999999999910e-03 9.886799999999999408e-03 9.999430000000000263e-01
-9.235128000000000434e-03 1.146551999999999988e-02 8.711550999999999323e-02 -1.529690000000000043e-02 2.012939999999999868e-02 9.995249999999999968e-01
-2.065494999999999831e-02 1.169715999999999985e-02 6.892318000000000056e-02 -6.354459999999999553e-01 4.366160000000000041e-01 6.368030000000000079e-01
-2.302956999999999921e-02 9.933356000000000824e-03 6.760389999999999455e-02 -6.686299999999999466e-01 3.751789999999999847e-01 6.419859999999999456e-01
-2.389793000000000125e-02 5.422329000000000038e-03 6.879262999999999351e-02 -7.303709999999999924e-01 2.219659999999999966e-01 6.459219999999999962e-01
-2.683955000000000021e-02 2.762929999999999813e-03 6.620030000000000359e-02 -7.184380000000000210e-01 1.317709999999999992e-01 6.828330000000000233e-01
-2.366611999999999882e-02 2.057286000000000184e-03 6.994071000000000315e-02 -7.470080000000000053e-01 1.275489999999999957e-01 6.524600000000000399e-01
-2.384671000000000013e-02 -3.118357999999999894e-03 7.016279000000000265e-02 -7.574419999999999487e-01 -3.547700000000000159e-02 6.518410000000000037e-01
-2.292078999999999991e-02 -8.932364999999999403e-03 7.002735000000000209e-02 -7.197540000000000049e-01 -2.294339999999999991e-01 6.548460000000000392e-01
-1.983605999999999911e-02 -1.554763999999999972e-02 6.974447000000000285e-02 -6.176289999999999836e-01 -4.451609999999999734e-01 6.483079999999999954e-01
-1.481144000000000037e-02 -2.036284000000000011e-02 7.002015999999999796e-02 -4.561689999999999912e-01 -6.195500000000000451e-01 6.387850000000000472e-01
-1.144384000000000026e-02 -2.165047999999999973e-02 7.090675000000000450e-02 -3.706769999999999787e-01 -6.709009999999999696e-01 6.421919999999999851e-01
-1.631072000000000077e-02 -1.731154999999999847e-02 7.158443999999999918e-02 -5.338559999999999972e-01 -5.342740000000000267e-01 6.553250000000000464e-01
-2.091666000000000011e-02 -1.239822999999999967e-02 7.062707999999999486e-02 -6.715860000000000163e-01 -3.539059999999999984e-01 6.508359999999999701e-01
-2.191635999999999931e-02 -5.935155000000000118e-03 7.192948999999999871e-02 -7.027440000000000353e-01 -1.330909999999999871e-01 6.987630000000000230e-01
-1.911925999999999903e-02 -1.102463000000000054e-02 7.294752000000000181e-02 -5.714799999999999880e-01 -2.568590000000000040e-01 7.789199999999999458e-01
-1.611657000000000020e-02 -1.438507999999999974e-02 7.351599999999999802e-02 -4.318859999999999921e-01 -3.525190000000000268e-01 8.300610000000000488e-01
-9.748058999999999891e-03 -1.397497999999999969e-02 8.748957999999999735e-02 2.678250000000000075e-03 -5.210560000000000191e-02 9.984699999999999687e-01
-6.291920000000000325e-03 -1.543625000000000032e-02 8.746325000000000627e-02 -7.914200000000000401e-02 -1.315890000000000115e-01 9.880109999999999726e-01
-1.965900999999999933e-03 -2.285776000000000127e-02 7.264887999999999901e-02 -4.529219999999999774e-02 -7.095289999999999653e-01 7.029680000000000373e-01
1.153724999999999976e-03 -2.158732000000000012e-02 7.356532000000000349e-02 3.579759999999999887e-02 -5.338410000000000100e-01 8.448189999999999866e-01
2.022140999999999869e-02 -1.820538000000000017e-03 7.260482000000000047e-02 6.489439999999999653e-01 -1.069840000000000027e-02 7.605610000000000426e-01
1.358937999999999986e-02 -1.151757999999999905e-03 8.733915000000000428e-02 3.606289999999999774e-01 -2.843839999999999823e-03 9.326219999999999510e-01
1.331655999999999986e-02 5.234301999999999705e-03 8.705609999999999737e-02 1.411259999999999945e-02 2.803330000000000058e-02 9.994399999999999951e-01
1.124337000000000079e-02 8.477257000000000195e-03 8.706392999999999771e-02 3.574259999999999937e-02 1.738560000000000105e-02 9.991809999999999858e-01
-8.619698000000000290e-03 1.636227000000000167e-02 7.348449999999999427e-02 -3.045030000000000237e-01 5.750880000000000436e-01 7.583569999999999478e-01
-3.660778999999999856e-03 1.173094000000000046e-02 8.774150999999999478e-02 -1.237020000000000064e-01 5.982800000000000340e-01 7.900930000000000453e-01
-1.550802000000000083e-02 7.678586000000000482e-04 8.725998999999999561e-02 -7.212440000000000517e-02 2.340269999999999850e-02 9.969160000000000244e-01
-1.534779999999999998e-02 -3.106667000000000022e-03 8.729278999999999511e-02 -1.286950000000000038e-01 -1.976649999999999935e-02 9.914220000000000255e-01
-1.361733000000000041e-02 5.806768999999999820e-03 8.720426000000000566e-02 -1.107370000000000021e-01 3.123449999999999838e-02 9.923959999999999448e-01
-2.026744000000000115e-02 -1.064995000000000004e-03 7.487214999999999843e-02 -8.347900000000000320e-01 1.214149999999999952e-02 -5.488809999999999523e-01
-1.728023000000000059e-02 8.142672999999999578e-03 7.411004999999999676e-02 -6.387490000000000112e-01 3.774640000000000217e-01 -6.654459999999999820e-01
-1.148946999999999989e-02 -1.051004999999999995e-02 8.754510999999999543e-02 -3.728630000000000000e-01 -1.178929999999999978e-01 9.186149999999999594e-01
1.010916000000000071e-02 -5.341150000000000238e-03 9.384025999999999479e-02 9.148600000000000065e-01 -3.474709999999999743e-01 2.047140000000000071e-01
1.551080999999999988e-02 -1.657869000000000009e-02 -8.072977000000000625e-02 8.013729999999999465e-02 6.446319999999999828e-02 -9.946610000000000174e-01
1.856721999999999886e-02 -1.426755000000000037e-02 -8.038734999999999631e-02 3.530400000000000205e-02 2.556289999999999951e-02 -9.987909999999999844e-01
2.312387000000000123e-02 -1.390486999999999973e-02 -8.070781999999999956e-02 -1.206210000000000060e-01 2.242200000000000096e-02 -9.924319999999999808e-01
1.883019000000000012e-02 -1.096008000000000052e-02 -8.036335999999999480e-02 2.152460000000000137e-02 -1.993069999999999911e-02 -9.994889999999999608e-01
1.565971999999999850e-02 -1.275386000000000054e-02 -8.055803000000000269e-02 6.852790000000000270e-02 1.307460000000000046e-02 -9.975230000000000485e-01
1.574878000000000042e-02 -9.100761000000000614e-03 -8.055328999999999962e-02 3.078439999999999996e-02 -4.052589999999999665e-02 -9.983459999999999557e-01
