0.143462958072389 0.05446520847056395 0.15649215688150664 -0.008491394746062782 -0.0039335932406955815 0.9999562105709846 3.986834153016325
0.13747456750317805 0.05857535890440425 0.15440754799567294 0.0027790168378830507 0.0017441007909717364 0.9999946175744376 4.100639837107123
0.13341140871780993 0.0616117355378817 0.15153540259103293 -0.009854351054377717 -0.0057288653621684945 0.9999350338231775 4.168463297701853
0.12716819476244115 0.06455558762438539 0.1499689726210702 0.0014452337146745509 0.0007148479349720599 -0.9999987001451252 2.006554311668674
0.12455305296999036 0.06550904807150319 0.1537137634127004 -0.0013724344085109341 -0.0010043564371489818 -0.9999985538449251 1.9720743379447845
0.11822541224383637 0.06803739867451533 0.15293185480082272 0.005280151994396492 0.004007309189797808 -0.9999780304926571 1.8879497364437623
0.11287768012630789 0.06882652650451729 0.15499523531107492 -0.014064981439494029 -0.01147379879265683 -0.9998352505479952 1.8103165173513462
0.10673593232911767 0.07026664706333735 0.15495064487149057 -0.005369600603688532 -0.00443347032668859 -0.9999757555712133 1.7190177313806125
0.09546690771869716 0.07156510706874007 0.15183272794307057 0.022993504373936945 0.025262212206283656 -0.9994163893948559 1.5663002498271235
0.089523186386079 0.07055887335326019 0.15411769895038357 0.012847267761696552 0.01452553013034241 -0.9998119606633499 1.462606565428104
0.09412260177835681 0.07046298754900926 0.15552609770506012 -0.0037206791512532336 -0.003671635740817506 -0.9999863377254911 1.4999254539253575
0.09932569859442203 0.07245505938738075 0.16119443131987793 0.04557502767923627 0.042277453349883934 -0.9980658965170013 1.6008101825274432
0.10586466168114002 0.07457404448202089 0.16489470716569907 0.10096335770251247 0.0955680113567269 -0.9902894302206577 1.6245196194862734
0.10217554644437941 0.07186602553040086 0.17078325238018202 0.0302002640452061 0.028503472448086077 -0.9991373759949135 1.570954527639315
0.09990818816805876 0.07014895957854819 0.16485079317138848 -0.016424461905773135 -0.017905145257468964 -0.9997047778341437 1.5460284323626783
0.091017289869277 0.07204880383807936 0.1621540555972239 0.043368206103865097 0.0501269468320086 -0.9978008257666626 1.470234498338152
0.08495368919210491 0.0697495183522622 0.15912077995897125 0.012153498017164267 0.013924754007638727 -0.9998291822665379 1.388936007444449
0.07780051512505648 0.06747376581020788 0.15673903128271957 0.0008839599677865614 0.0002931460037636939 -0.9999995663400038 1.2867151320687216
0.08096870291517179 0.0692077705597638 0.16281242054639192 0.01808591633882751 0.022657514815995757 -0.9995796799918193 1.3209461849461157
0.07672167246703437 0.06676638836989245 0.16307615621660654 -0.012111988073360103 -0.017715874335246847 -0.9997696972510461 1.2648409047028233
0.07210837063484828 0.06407071865552581 0.16460254037905753 -0.037254453836684825 -0.05687821807407292 -0.9976858092496097 1.1903177719317648
0.06334422319358585 0.06150950132016341 0.1605362752603983 0.009767640190518883 0.020838923442955633 -0.9997351311596722 1.070044158174296
0.057137982977532614 0.0570132159305246 0.15950031658328612 0.002707665317681259 0.0059636919786664805 -0.9999785512332308 0.9537291057485068
0.04983038257077068 0.050980270683171194 0.1587989678365078 0.0061689594269741434 0.015078942690142665 -0.9998672759056252 0.8255802771648048
0.04560390830533246 0.04701960298537255 0.1559406307625883 0.017296319620639884 0.04836727746685315 -0.9986798505016636 0.7205043127216213
0.041672877159423145 0.042268336540358345 0.15521212730720524 0.019687778033562756 0.05857550699687705 -0.9980888243919777 0.6626940046750477
0.042040711448899024 0.04300505098802241 0.16022280278495696 0.022203065455393727 0.06288763391457965 -0.9977736062780019 0.6827471553488768
0.03763103897917092 0.035428354857669 0.1595070721729518 0.011142703250876098 0.03543356930854801 -0.9993099130551638 0.5532806911393721
0.03363435985798021 0.02914034039371313 0.16128521119979294 0.024315325131634376 0.11511523216689246 -0.9930545041874114 0.44320999689347185
0.031050557857535608 0.02280895084901962 0.16118264034051427 0.028205223427939092 0.17196362282299066 -0.9846994352577706 0.3434348451967112
0.030413508894197083 0.01716200655900339 0.15792914739777028 0.007374405388601029 0.034031865729957304 -0.9993935412339339 0.259458894272032
0.03034780951224858 0.01596110325180683 0.1625512314456411 0.0006035245301016642 -0.005642274887401526 -0.9999839001165151 0.2351741487281833
0.032533355444558903 0.020457593873034908 0.16371465736740798 -0.03497361426012987 -0.21984145138355266 -0.97490849958299 0.30064084836096927
0.035000013204833896 0.026358991415516345 0.1636040688199284 -0.048813490178583226 -0.25063984168671277 -0.9668489607668019 0.3814448952657868
0.038338440460032035 0.03499666869250555 0.16239089090541337 -0.013892942637208375 -0.06653925649970595 -0.9976870819497191 0.5073040341124087
0.036913887363595584 0.03346294824779063 0.1678368031778203 -0.0031343978582284693 -0.015955865285119365 -0.999867784216028 0.491330549875777
0.04016970474420186 0.03915637474940806 0.16834674871100735 0.0019428097402312914 0.004372209401035999 -0.9999885545721343 0.574930563021014
0.04423426926646971 0.04431621113603022 0.16761764461669879 -0.004864049791434896 -0.013996109722813985 -0.9998902189401861 0.6523851056851481
0.04901129269773814 0.047799815449764006 0.16428171479541143 -0.046745064490031386 -0.11580915490083364 -0.9921709220628154 0.7389602118808389
0.056576462083535596 0.05424564593019729 0.16216968986612837 -0.06617337073914152 -0.13564605258094575 -0.9885450082946288 0.8893739220143645
0.06456396423193432 0.061544701068715985 0.16237635637092285 -0.0021067716093503266 -0.010579283323392245 -0.9999418184463281 1.016899668430683
0.06484394410837697 0.06138749202885038 0.1664532243307311 -0.016067755880906354 -0.029716019903318795 -0.999429229801719 1.0437309799697798
0.0617449103049927 0.06000487280025496 0.1702789510407214 -0.003639455090341006 -0.006778099994423428 -0.9999704054256362 1.0165458219484482
0.05521674500293908 0.055540921333227314 0.1683607705619638 -0.0010964868131899033 -0.001974585662758097 -0.9999974493608116 0.9219335252915191
0.05519750762412954 0.05537842393510155 0.17241458637401758 -0.004803823025936462 -0.01002769403518323 -0.9999381824076289 0.8964760618696858
0.049746501566743866 0.05084783498639662 0.1715718533891104 0.0015269524860869717 0.004356415775727341 -0.9999893449720824 0.8163792598995433
0.044778763812500476 0.04491385414632525 0.17406491589968145 -0.008545337748816512 -0.025991935594973935 -0.9996256281662577 0.6875715205248859
0.0407249325267164 0.03942469928740247 0.17502635123639224 -0.010590683999673474 -0.034420742395393236 -0.9993513145562821 0.6137366554603076
0.034914519886170045 0.029241683100260967 0.17102457984025493 -0.005564326292932925 -0.019943143963738422 -0.999785631663982 0.45534304612268306
0.03183151972376838 0.021499126426306754 0.17201275007163724 -0.0006760714895148143 0.0025885328213974593 -0.9999964212061829 0.33272477501933173
0.0301654508649967 0.016037448862899824 0.16833613657038057 0.0035565557035082255 0.03916457612287775 -0.9992264442500723 0.24287959533868364
0.029568897920003803 0.008630547255840611 0.16383347735864706 -0.011669731939134153 -0.24754300689141354 -0.9688066252331403 0.14844349514799737
0.028977831067757923 0.007400284184604957 0.16832924726144533 -0.005707584800221182 -0.12127150911979381 -0.9926029642065127 0.10877802771430956
0.02847552854192015 0.0009065241220543109 0.16761123886500537 -0.049935134487284205 -0.7195206963753984 0.6926734077696347 0.004799814487119304
0.02952936506394435 -0.0049057705168771715 0.16319409414801822 0.019764728168880696 -0.7846376348298504 0.6196395222458203 0.06230185865641043
0.028527839880225517 -0.013121065408705989 0.16385910621324304 -0.04913468463180847 0.376916537652221 0.9249430827950412 0.1836818275053683
0.030119130748510275 -0.013030053800037168 0.166638393060415 0.005421565113509147 -0.07998263041090337 0.9967815134041527 0.19601145801262448
0.03122488918926655 -0.020049891039742262 0.16352335342987237 -0.01586804997117968 0.08902727732061705 0.9959027808390688 0.281130041598287
0.0321043192530128 -0.025897464105446067 0.16203205414517677 -0.04171390669980067 0.21749591592183412 0.9751694604247833 0.359169611957213
0.03392654162555374 -0.03213172585196112 0.1633026233890301 -0.06307114532983965 0.26925125125348276 0.9610024944427648 0.45757452450092956
0.03597197758692808 -0.02895987011118108 0.16538791438815253 0.02262204827719475 -0.10828961935856476 0.9938619628856522 0.43763285744372854
0.04146976627029678 -0.039448813894266764 0.1558817843543193 0.01000585243625946 -0.038647222635962465 0.9992028198016407 0.593041431424134
0.047796644763448304 -0.04907137462762455 0.1523376637793649 -0.027748525612807752 0.06314046608468797 0.9976188154144465 0.7267107212276264
0.05111966673851421 -0.04993558021392922 0.1460631926189879 0.029847119859052616 -0.06544771966974502 0.9974095174130583 0.8128834773457866
0.05309675495364501 -0.05520953476557223 0.1453523880126835 -0.04549165432918316 0.09631911812989623 0.9943103825612369 0.8609881651023966
0.06101077144882655 -0.05948350555741298 0.142759835584112 -0.015495787723041329 0.03151402552503816 0.9993831831475101 0.9832188345161521
0.06775415801470307 -0.06257612448266664 0.13884652489089744 0.00014655082977469835 0.0017929917583801942 0.999998381850395 1.08558655239207
0.07515213348927224 -0.06593923001899284 0.1366174710350364 -0.004716816675841017 0.007270858620328759 0.9999624424223991 1.1821267322196443
0.07414515289304936 -0.06573120392931173 0.14149990828058853 -0.010970684455680915 0.016079251263456218 0.9998105329318053 1.1980442971550465
0.0793530678632722 -0.06766281244906322 0.14173971393916926 -0.016228348357081018 0.021535673446962392 0.9996363616229588 1.2792552555727372
0.08562228579886137 -0.069109386835802 0.13812262834182076 -0.014470249074491086 0.017330789082338958 0.999745095332558 1.391169567674623
0.0915404680613356 -0.06945250503197278 0.13904218596459328 -0.0031488701906810007 0.0039033067598507084 0.9999874243273565 1.4636429782648863
0.08829770702500811 -0.07033731811319216 0.14305542672104005 -0.031799071322131424 0.0369336011139293 0.998811658007558 1.4371682725496786
0.08858965341102289 -0.06725520977965979 0.14618562491708578 0.06108111701058566 -0.06740580615078377 0.9958541833229914 1.460708827198649
0.09542096758814107 -0.07157007251282296 0.1455585670999138 -0.04877188042167337 0.049360983945053706 0.9975894932005399 1.5125012480476443
0.09575703150311152 -0.07025363107351537 0.15054200778298948 -0.01723180286403584 0.017432486767538672 0.9996995415499372 1.5411828593570145
0.10537880690933933 -0.07240145807150136 0.1467623691948535 -0.07692516772751112 0.06797045730662875 0.9947173143680682 1.6585840177158129
0.10821252809086547 -0.06746468377148071 0.1463564481499553 0.05312765721386675 -0.04404077880818151 0.9976160894056063 1.7132088060730926
0.10314537137607112 -0.06805281336620111 0.14439847527038924 0.05763103405311607 -0.053141161320709784 0.9969226052645486 1.645007303013413
0.11368364610393657 -0.06567599258317859 0.14460474362018552 0.08465261961229152 -0.06721218372153137 0.994141064614152 1.7838600117334327
0.12131126351764604 -0.06355770360909356 0.14404965730049893 0.08028066406929275 -0.05796523992607208 0.9950854465506498 1.8910632274672352
0.12042592544775485 -0.06562684966602468 0.15082423647652327 0.018349023560330486 -0.013266318943467088 0.9997436261942723 1.8894778645320478
0.11591198811945451 -0.06723911469020483 0.15425275495931146 0.006549154964929296 -0.004755218177234305 0.9999672476983095 1.8312779107720847
0.11055337269451855 -0.06872676212827127 0.15265924978403306 -0.003926306003554117 0.0035107748460337786 0.9999861291943739 1.766258524427689
0.10094339866884805 -0.06986301685450337 0.15410994331117298 -0.005816462038995484 0.0057506747958474816 0.9999665486948758 1.625624650148296
0.09204309004004964 -0.06933078221199929 0.15489125158244135 -0.0005519608681327207 0.00042667020480449826 0.9999997566458385 1.5089480896093501
0.08411589556355907 -0.07022352363413825 0.14834596620948115 -0.04997625580582694 0.0630051870209127 0.9967611149438416 1.3967648413140594
0.07799743110491547 -0.0690309814240265 0.1529606556020878 -0.05814098268120841 0.07541510795023856 0.995455768794233 1.3362331161847716
0.07564895759589481 -0.06581536201708989 0.1467853648269637 0.005272046263020303 -0.011772406065019472 0.9999168045310773 1.226233375373151
0.06905262789429482 -0.06218499114380861 0.14498634160684695 0.02982894086076094 -0.04944197017171903 0.9983314709417229 1.145270622398866
0.06257703946175366 -0.05824618406390449 0.1443208400537009 0.0448325935317642 -0.08046442981096248 0.9957487203569042 1.0471381644350284
0.059925907228833834 -0.05823003855854187 0.15037116667283476 -0.003047238580949141 0.0071085902904719275 0.9999700906932733 0.9956552858561458
0.06377898948098125 -0.060950984317580614 0.15403648209811444 -0.012613441963841834 0.02182373285142788 0.9996822624045375 1.0466275425446114
0.06838120442268886 -0.06416932990346322 0.15250362700186296 -0.03236155920472949 0.05106162132538656 0.9981710476233329 1.1125176620211723
0.07004779979345895 -0.06364179975621524 0.15558501908949351 -0.001394306064370485 0.002497619806046161 0.9999959088945831 1.1404080478823033
0.0753218447362025 -0.06561016776541052 0.1564317482269819 0.003231701441094781 -0.004311606152493198 0.9999854829737186 1.218782040695087
0.08090585044425098 -0.06755802388584121 0.1546416646740284 -0.0036356368977661395 0.00455342559847651 0.9999830240857426 1.295864231382411
0.08541870067143909 -0.06825218977018382 0.15790982331349823 0.005651012091659619 -0.006657344955307804 0.9999618721833777 1.3695573558526364
0.09398033659560227 -0.06896281751301839 0.15768943071069308 0.01854523388935825 -0.019482587637082337 0.9996381860848216 1.4865415422553423
0.103144193359644 -0.06875174935071905 0.1574328693480191 0.027199127784892908 -0.02531357380536098 0.9993094768033282 1.6199607593658119
0.11024175625414744 -0.07025660938304593 0.1614910105229162 -0.041275651174923975 0.03340937110553924 0.9985890719121745 1.7145136091874342
0.1189285093878034 -0.06689333466175662 0.15778716426848485 -0.007214729110962035 0.006241076858328139 0.9999544972865035 1.8377236112644495
0.1256818851469918 -0.0641933882313977 0.15531227231790995 -0.0006004468253373645 0.0008316758192126667 0.9999994738893325 1.942843904294351
0.13423423816285293 -0.059767510924005396 0.15520985704121115 0.002414673074886179 -0.0012067753037946854 0.9999963565170163 2.0802589936840894
0.13864811292404827 -0.05768229207514574 0.1522912488263185 -0.015194199265508032 0.007765192395536683 0.9998544084494204 2.161467811521024
0.14380460728573585 -0.05385230537708862 0.15212032302928108 -0.015798062525871806 0.007481515194711715 0.9998472124033853 2.242742625804352
0.14680294955049872 -0.05007371218037676 0.15418612602511916 0.009187670910285887 -0.003689511560666492 0.9999509859026532 2.309063065987163
0.14234500177165035 -0.05437116980127524 0.15689939040964634 -0.0004078532712772316 0.0004975563016678457 0.9999997930466964 2.243793761982476
0.14632717190820796 -0.05367907713500969 0.1618475811342793 -0.05408793748572632 0.024479153964833335 0.9982360773082218 2.2801402638076302
0.15181153673334596 -0.04849776658791829 0.16265999042815305 -0.057932733570404175 0.0229139201984813 0.9980574886459188 2.381890435386212
0.14791404288934923 -0.047615282850665325 0.16474689160302627 0.034969149583927175 -0.014474083593821284 0.9992835731070014 2.370189245745246
0.15588707245950728 -0.04179709384429335 0.16274183554839483 -0.03052538760253006 0.00881569814354257 0.9994951146343624 2.4733044817685927
0.1544493779096494 -0.040437791645049445 0.1654989791393052 0.02573524378480196 -0.008717104773444466 0.9996307864965471 2.500380023669582
0.16013435506099766 -0.0351019033502785 0.16261989244131955 -0.02748851543466662 0.006655872520950254 0.9995999604242605 2.5863371340368113
0.1587099999071437 -0.03375866305897962 0.1653224517855518 0.02666996604819076 -0.00710035250136863 0.9996190764012783 2.61789133771559
0.16407289370646969 -0.02594173685391311 0.16334882826669822 -0.016618425608277802 0.0024500230007847676 0.9998589027045754 2.7267508979065886
0.1663104330263949 -0.019867687815317007 0.16149680806984118 -0.019689453610853128 0.00277642842397618 0.9998022888860141 2.8197094554344666
0.16512261163602898 -0.018207508517145112 0.1641988169655166 0.02930196036527167 -0.004093072752110243 0.9995622251136735 2.84966818688773
0.1666570671212646 -0.011241860963926792 0.16435430136033588 0.03203927798251787 -0.0027248434594806703 0.9994828962490955 2.96321545208264
0.1681254616002072 -0.004598917839514896 0.1633172214239591 0.006006859708422153 -0.0008648270843423718 0.9999815846857169 3.087914474471358
0.17026544120054848 0.00497226964317007 0.16383480325894453 -0.049996483428991816 -0.0026757479929675394 0.998745809511816 3.190499465827234
0.1688944342737747 0.005445530165893778 0.16800969023213244 -0.015934124189364445 -0.0008174012788377082 0.9998727096693194 3.2031611938915905
0.16708732111362867 0.008489673291548363 0.16455616952436625 0.02703800586489773 0.00021766507248104262 0.9996343825923386 3.179506660497392
0.1683545370185878 0.016403057619434523 0.16316005319988264 -0.04308058642065725 -0.0064876370693789254 0.9990505360785851 3.327612958151773
0.16428763618830294 0.018984213736492252 0.1641482103956554 0.05306713683808998 0.0065609186979219795 0.9985693933491286 3.3757647202245877
0.16320285042626137 0.025734610904179455 0.16246249589499823 0.013223342594124804 0.001445240182711509 0.9999115233316659 3.483561756747686
0.1607937837939071 0.0341982298964051 0.1639632241622299 -0.02541532915493371 -0.0077130993197822096 0.9996472223453781 3.6192570646332496
0.15740172455688003 0.04361346016975682 0.1647447146776615 -0.07820885023092754 -0.02736304878833035 0.9965614076947612 3.757943837520906
0.15460555229230927 0.04014354937894454 0.16462410898528163 0.035863407401797255 0.010606537126181759 0.9993004139795617 3.7555542223367846
0.1508918557781899 0.04627362216519539 0.16243756541685664 0.011440512644432004 0.003420858602989406 0.9999287036568412 3.8262853258418397
0.15116636472941608 0.04632912098360395 0.1670326160908425 0.003892975761361155 0.001181496297746303 0.999991724368867 3.8518775238190335
0.14539589810495362 0.050529255224249295 0.16333178527258796 0.04695790519789458 0.021466856225796502 0.9986661750671275 3.9572246271353433
0.13662454112851868 0.06037184452588705 0.161158029744595 -0.026164752297228356 -0.016573745676721603 0.9995202432624702 4.106536561134486
0.13170005311772548 0.06260188192554446 0.15717111267021808 0.011156082429729675 0.007014153175149074 -0.9999131679701275 2.0904620993340157
0.12720987451092988 0.06500738654766143 0.15952935148583236 0.016492685534826662 0.010723615581634843 -0.999806478971159 2.016025242548587
0.12096661352154012 0.06683199044301882 0.1574201454281741 -0.0033432549654507844 -0.002795420536232079 -0.9999905040900448 1.9223364040782347
0.12226013616248428 0.06864475921807854 0.1641870555088513 0.052352989469873414 0.03511282205952668 -0.9980111493468313 1.9482553570838226
0.12547076739668117 0.06461492099877883 0.16544106008140658 -0.02096413945975774 -0.01233425231025202 -0.9997041417722841 2.0020471440651386
0.13117393481779735 0.060370671182303146 0.16267833990884684 -0.0668186410967888 -0.0383723090699658 -0.9970269981793962 2.0723774669255475
0.13827336223928008 0.057608175451856654 0.1624129455933621 0.011361105923554894 0.007203193638650013 0.9999095155430804 4.11252631888218
0.14010974855136862 0.056713327799995064 0.16812535954311056 -0.0012792590425529588 -0.00019883803571854968 0.9999991619795177 4.07431877008547
0.14482641706179383 0.05289359499780798 0.16961904273651665 -0.0019845914387450645 -0.0007511119814991991 0.9999977486112718 3.9831319505198306
0.14433434730760691 0.05341847383103514 0.1742390038287996 -0.0012511394879023933 -0.0005221034881010842 0.9999990810285425 3.9791630697899474
0.13935262956408576 0.05698870746630614 0.17355888410093995 0.007827277028693635 0.0040411713240514294 0.9999612005816254 4.05688564192563
0.13474685275081763 0.06027913157491872 0.1708101758212054 0.0014278046230361754 0.0006722609724935095 0.9999987547187962 4.136983449521266
0.12774833274444436 0.06382099123280563 0.17200942278123746 -0.0084431491906104 -0.005390906901915328 -0.9999498244184656 2.036111696068033
0.1205064088890745 0.06742443875895238 0.16930202567415625 0.004118926095509468 0.003889639385862186 -0.9999839524478719 1.8552093986486813
0.11756040604125724 0.07080709846145782 0.1661147093530257 0.06643605371694494 0.04611240110520812 -0.9967245844418767 1.9135351055869145
0.11504293996576168 0.06952961759932759 0.16857509421407266 0.020597897252905294 0.014267742214003726 -0.9996860297917909 1.8176801079021763
0.1089798156854658 0.06856459324553021 0.16368836443890766 -0.04669147466273218 -0.04500467366609887 -0.9978950273160135 1.6987912607909057
0.10937518570008857 0.06908921607141297 0.16909951526408576 -0.030682092435297244 -0.027509383387374405 -0.9991505607411919 1.731085273987939
0.11649074169790388 0.06852926457778796 0.1719914838638643 0.001213815929627729 -0.0010445090098763095 -0.9999987178250868 1.8673913649319591
0.11750038886813784 0.06957573470675407 0.17861090029375917 0.03910215234867458 0.030136511797212318 -0.9987806627775677 1.8272444227418878
0.11034156526484877 0.07075503737686846 0.17839429001651655 0.028335482054465688 0.023994010629905367 -0.9993104562200043 1.7188533631667775
0.09852502116191361 0.07070351055162014 0.17119181892606394 -0.004424690197172243 -0.006157690491556233 -0.9999712520690128 1.6016231182568352
0.09212237548493261 0.07059931515126813 0.16772599571600155 0.0012808154653700195 0.0010956813860126802 -0.999998579496013 1.4901524220099163
0.08462414254378406 0.06927506631168034 0.1676096732964175 -0.00438434095367716 -0.006184696897375712 -0.9999712631264407 1.33322460599466
0.07728848914722754 0.06765735085183029 0.1686885432553235 0.004522948506341182 0.007119241019228268 -0.9999644290394128 1.2131474589959146
0.07069701857979084 0.06497304207699871 0.17158942823403855 0.0016383205941238438 0.002598125740247175 -0.9999952828130084 1.1512726647830793
0.07203592865287893 0.06500608481714537 0.17498425153901365 -0.014250634056925874 -0.022068553517454726 -0.99965488963673 1.1480013520800496
0.07885142429138133 0.06810079322970113 0.17345846610829055 0.004226837162232406 0.004426048611561369 -0.9999812717952733 1.2636819038053064
0.08829878185746101 0.06957421254264377 0.17226356708271479 -0.015134165285163193 -0.015036185452656215 -0.999772409185288 1.4831368431816332
0.09640706654663522 0.07079312184511272 0.17572201407754112 0.001922104001476251 0.0014443868646145965 -0.9999971096272191 1.5980182265148684
0.10196123224473598 0.0725205121969425 0.18021910009275918 0.04788676941999092 0.04616343449844694 -0.9977854451884054 1.6047471717140105
0.09746773542690715 0.07007540329361973 0.1812011891585222 -0.018739731120432496 -0.020473557511476767 -0.9996147537528437 1.5569101312512004
0.08889371130170948 0.07155802355740369 0.17997360608561902 0.03684578133822447 0.04471171449993566 -0.9983202146526193 1.4431501990857172
0.08017534853862389 0.0714182530694678 0.18167163277781687 0.0733239112511704 0.10139335773278302 -0.992140610521766 1.3039961825230901
0.07941935261191319 0.06644070091884947 0.18190775526388187 -0.05496430696313262 -0.07379391221371352 -0.9957576931564512 1.2842629312287668
0.0755580904079998 0.06735371772797726 0.18055862071745168 0.012380819402733077 0.017009811570095186 -0.9997786663163337 1.274425160664276
0.06603311785087614 0.06332765306860161 0.17803981252951323 0.015864845948558724 0.025847857459033403 -0.9995399916600666 1.1267073617171097
0.05797843426171803 0.05960383894244514 0.17911177775744608 0.03838977062453767 0.07257920204073373 -0.9966235422377527 1.012100377828198
0.060274339581015975 0.05907676921911725 0.181327306440134 -0.004119639517771191 -0.008789273279906149 -0.9999528875129342 0.9669051679917264
0.050187641115320016 0.05277785265107703 0.1785808347145642 0.02789362914072039 0.06688111852460189 -0.9973709748324632 0.8507352950372077
0.04980078478498782 0.04934806722031135 0.1807491358153398 -0.03548473993220244 -0.08843479435596462 -0.9954497076091602 0.797034646107176
0.04290698871616261 0.04474131176330991 0.18030731392940313 0.02526072432673875 0.07257490630920665 -0.9970430175176488 0.7290818075478267
0.043490525091969295 0.04426979805718327 0.18555330216810184 0.010285902579848655 0.02980878890121275 -0.9995026944998 0.6758859735982712
0.038422278758815376 0.037632211026668146 0.18117390978910122 0.016400598715318758 0.05949851718082529 -0.9980936563344454 0.5602480076226876
0.035571600667738394 0.031232764089354804 0.17580395452914166 0.0026412220216631196 0.006119140262718652 -0.999977789787692 0.4621038974757731
0.03199938903280999 0.02684232288675562 0.17956136109042078 0.03812103757665165 0.20531735995197417 -0.977952743334989 0.40084226119247707
0.02994767629822245 0.0190738712869406 0.1789803769587974 0.029120888942986017 0.19016070762597317 -0.9813209867838146 0.30513237394384923
0.02980966202867026 0.014777725992180045 0.17370433299055354 0.010365672139921053 0.06152497189269106 -0.9980517174348689 0.22695015775979535
0.028261239957669177 0.011459799674375317 0.1789255032427433 0.027508226543294306 0.3510827562187541 -0.9359402736063266 0.1810205191325916
0.027436162446966166 0.0045187068003446325 0.17825033250378974 0.018328778732778665 0.7636792996541244 -0.6453355585662011 0.08073157909108099
0.02884812675872751 -0.0011876381857800695 0.17376062226577643 0.04460852093290152 -0.40207624854718266 0.9145188736239418 0.05358117476746911
0.028910007711786707 -0.007693780586688261 0.17101453634203054 -0.002171582509345942 0.0724390717277884 0.9973704753583904 0.10784510566412767
0.030221305743460394 -0.01461903000035521 0.17306498286953287 0.0019354952858940883 -0.008360194976660998 0.9999631798211124 0.21138484126405085
0.031611017001830936 -0.01972531890800772 0.16941351225503434 0.0001053090822636838 -1.5223203366654764e-05 0.9999999943391256 0.2813578024542038
0.03400712719240232 -0.026104741251205474 0.1717258784981169 0.005812252495632074 -0.027816439913983356 0.999596150148368 0.37351260856752505
0.03845466714881367 -0.03207837329980055 0.16371490601159336 0.05733665776229074 -0.21812263922200123 0.9742356090471538 0.48490305961552455
0.04647722867799121 -0.04540762638220056 0.15512609354472812 0.014856023955334112 -0.054510479666132775 0.9984026773595945 0.6625000677370678
0.04718156358823433 -0.0497555112493166 0.16165053286527317 -0.05219872909338688 0.12144557540076736 0.9912246288791516 0.7496534435954124
0.0550166363918182 -0.054811824137675096 0.15643462296625812 -0.007730444294265526 0.019508728408818333 0.9997798006295607 0.8750032000499409
0.06070590924520056 -0.058570064736887896 0.15799736985000243 -0.0013736636212629365 0.004027792786933416 0.9999909449257633 0.9740169716636213
0.06609743752321871 -0.0641105581770076 0.16177370665554022 -0.05870415050572243 0.08968557611520742 0.9942385629969724 1.1100756429296061
0.06987218693167774 -0.06223946774416024 0.16368522295852414 0.03938913961799344 -0.054478694568737523 0.9977377248146129 1.1885985753793302
0.07762606685055501 -0.06789422919093761 0.1625353994989897 -0.03582312271664161 0.04775232277453349 0.9982166195513202 1.2513607986532673
0.07573583287037107 -0.06397654515625507 0.16424606471846243 0.056459341885923144 -0.09294779774872027 0.99406893604391 1.1655046897504844
0.08052489623928767 -0.06580970734588218 0.1632720285900847 0.05178952969999668 -0.0731045734728235 0.9959786975386622 1.2662592945469047
0.08971389252800636 -0.06978557949515496 0.1627306681078908 -0.02193534363828407 0.01852672313061886 0.9995877156255532 1.4374255242050797
0.08939803653503704 -0.06757335164980847 0.16478888016917018 0.04484943381968054 -0.054205015156085404 0.9975221023205363 1.4289165636973156
0.09579856561995274 -0.06765369042575645 0.16223561781535378 0.07509689534354921 -0.07886044549537281 0.9940530601763828 1.520843959412615
0.10334868752187296 -0.06735474520758146 0.1613988630722018 0.08449094874420655 -0.07909273468299795 0.9932802318080578 1.6357712799486455
0.11584350987095493 -0.06824038716884125 0.1628043673836843 -0.02195524529906939 0.012107752954712414 0.9996856353485557 1.7780059975681437
0.12460391973963215 -0.06658218066725174 0.16273906823714268 -0.04854481021060796 0.03133494348148184 0.9983293658500828 1.9126162563172806
0.12483772214063907 -0.06427107886009138 0.1665466141380301 0.006855586144527487 -0.004995656794254648 0.9999640215286794 1.943731765594777
0.13296574874324787 -0.06227588697737512 0.1623424032042718 -0.03841597766200808 0.02192484521102168 0.9990212779629595 2.0463445006855236
0.1314267206339816 -0.06007632060223096 0.16483729609485645 0.03642173783979515 -0.021914231188217153 0.9990962033178581 2.0624120726200905
0.13982772296216947 -0.05796891619034274 0.16314729030435518 -0.03877501136216668 0.017542678864371785 0.9990939660072646 2.1834055578458016
0.14182119374001645 -0.05360336890793007 0.16547355041284725 0.028042271548763792 -0.013295078954240957 0.9995183199331495 2.241172535387837
0.1375572962466896 -0.05583131281188647 0.16406359818815966 0.05452968730092508 -0.02847888432145808 0.9981059394426368 2.1896885777595467
0.1426327085507337 -0.053261900536972016 0.16989788444532586 0.022842777365009483 -0.011620465929501592 0.9996715322013696 2.2387469033963843
0.14923739523574409 -0.04795776353886454 0.1707092149739706 -0.0006748723728811507 -0.00048390391904177556 0.9999996551920793 2.360181535880406
0.14757983729781873 -0.049052799539011725 0.1741318965917903 0.014669987506101682 -0.0062402807608027185 0.9998729171062678 2.3618525290499455
0.1523219959681593 -0.044420501098551717 0.17586377032719477 0.005062279648707124 -0.002116265290431411 0.9999849472596969 2.4441553467807258
0.15755704716641064 -0.037956107271721405 0.17168509689496184 -0.008582854985277555 0.002189295349039609 0.9999607700235926 2.546533715660007
0.1620916061638518 -0.029038273563991003 0.17032640135392862 -0.0004711331214126948 0.00018844942772648098 0.9999998712601893 2.6805844428775147
0.16487812795616358 -0.022352938559690907 0.16963973515566472 -0.003895375635651508 0.0006167065768016523 0.9999922228305854 2.7979765273438497
0.1664350230774652 -0.017000227690058586 0.17196475065481093 -0.0022547230346883318 0.0003057684278681239 0.9999974113615021 2.8728573620399005
0.16805239372522152 -0.008797010208045056 0.17108248756774497 -0.003978428702743249 0.00023467882294955813 0.9999920584839199 2.9962915959423198
0.1683638581988981 -0.0021259481041595537 0.16747300945800675 0.0034540416657761644 1.3571774571300614e-05 0.9999940346881965 3.0827497765391056
0.16846967390388642 0.001501463358829021 0.1716777280333827 0.0016435807489192837 7.089162354168154e-06 0.9999986492951205 3.139811875975892
0.16781303819711652 0.006949489678926717 0.17243683145325275 0.01195151036335845 0.0004535009984887492 0.999928475310549 3.1989917368454277
0.1667427661924628 0.011039457717523272 0.1691555905533909 0.029862496203927544 0.001358094288976332 0.9995530935875154 3.224326638219634
0.16542981533150597 0.019403879823965027 0.17017449549104618 0.012368912374111193 0.0009023323497661718 0.9999230949443123 3.3833245688680313
0.1627249463450465 0.02764254968744455 0.16816197335596822 0.005417011710109141 0.000618640101206382 0.9999851365238174 3.5121140160656314
0.16266114937753604 0.027671788379590216 0.17209630389807978 0.006589569703957607 0.0011897472949570645 0.9999775807849347 3.5322989221335255
0.16022266691695833 0.03297527670001567 0.17280319963411986 0.004600502350482736 0.0010165044954783841 0.999988900986773 3.6088812286953695
0.15549657897536473 0.040594881734752016 0.17104658098060407 0.005381823875471581 0.0016380584959527881 0.999984176242873 3.73692576949902
0.15613783425556296 0.03934296179543531 0.17446651975053715 0.013137360879596759 0.003985193932444857 0.9999057595485885 3.731603724783121
0.15351223990382895 0.04361886908308783 0.1751806692632576 0.0009154523486940428 0.00016949792112939716 0.999999566608632 3.7718372229998356
0.15027471895673658 0.04970059684648099 0.17894437023004428 -0.03908321832016561 -0.016134387456854964 0.9991056919000764 3.8734962185149806
0.15003011895491275 0.046480327301381984 0.18053134674338722 0.03318952163568544 0.011598904528075679 0.9993817694291521 3.8525064922002423
0.1553865436885761 0.04306384184586272 0.18050089311455353 -0.030608037608230828 -0.009580462521229263 0.9994855490559393 3.7907294441329284
0.16044164525916846 0.03670806393460592 0.17999811104647026 -0.047112071791099455 -0.012751425672062255 0.9988082167437752 3.6952114084699046
0.1639879468039938 0.0307309520577965 0.1810608968932375 -0.05718542165100557 -0.01267305645034521 0.9982831367857534 3.5924267130138476
0.16474726867910816 0.023321323010441267 0.17681183959344848 -0.0021480491675196444 -0.0017739660236390765 0.9999961194571311 3.470270209518725
0.1659214027358521 0.016470065799204656 0.1736713404014105 0.022935092707211033 0.0014581884371226907 0.9997358927281711 3.3572739464666053
0.1677025109566882 0.01530685359683768 0.1793102842129934 -0.017928664128354328 -0.0016352714430302993 0.9998379313118103 3.3235329428983307
0.1706376921699787 0.010767890325468245 0.18256051787106714 -0.07301596591592582 -0.004783118777626705 0.9973193021776543 3.285463120673204
0.16904944457491305 0.009678472018333995 0.18643356567501773 -0.030364514952747095 -0.0018020219254865951 0.9995372674136089 3.244150762366677
0.16870207893273573 0.0013590876785548485 0.17740062824916286 -0.004055886875343936 -0.000648637740592469 0.999991564489789 3.1521433048623955
0.16791229407348027 -0.006418045346877334 0.17553210993131318 0.009309176522276384 -0.0006695945558986883 0.9999564444892626 3.0809737287419803
0.16996114668899803 -0.004635499233420362 0.1807812545459364 -0.04315284284287508 0.001151380771540043 0.999067818757514 3.082580829294128
0.16808345618104023 -0.0003295862791726701 0.18055137343691552 0.01466036803138178 -0.0010593249713210075 0.9998919698846419 3.0536490756658066
0.1665719777456522 -0.008285919283805579 0.18001072386231937 0.05232615063446121 -0.0038085642568520964 0.9986227860398947 3.0144059599632156
0.16608259544435133 -0.016770963834636995 0.17650144225122044 0.012142271654298391 -0.0006189647747914213 0.9999260883293729 2.9184636535382538
0.16409224811863274 -0.023451894949386938 0.17557532765036962 0.01029008188955086 -0.0013960071843835565 0.9999460812357073 2.8171526057465557
0.16157752237824177 -0.030056747879116948 0.17618035483054578 0.0024074761586734537 -0.00024304153737822904 0.9999970724903929 2.7252308172036668
0.15813697896834414 -0.03647772215790678 0.17624402043257026 0.0009034018920095385 -0.00010457808603071149 0.9999995864641372 2.608456175129707
0.15640695088004206 -0.040113026080500824 0.1807518180133801 -0.01523160911736792 0.0050114601468015585 0.9998714334107625 2.5440480242438857
0.15207452642471012 -0.04362311133883864 0.18248735856185352 0.022500733219017258 -0.008716910810725917 0.999708823843485 2.458734012137663
0.14828692095839408 -0.04977916523505637 0.1810078726968991 -0.015420740680111527 0.007034357251648739 0.9998563489696571 2.365385108071772
0.14132883442545707 -0.0558338860659351 0.17810677974350678 -0.01737904505986235 0.008646518026051953 0.9998115855094061 2.2482879352684746
0.13436868086247195 -0.05981822566123552 0.17306414006487297 0.0005303307545939909 -0.0007342081741152772 0.9999995898437396 2.1360753948858866
0.12466191985506991 -0.06459563845323078 0.17148023755072908 0.0005267773127944074 -0.00047047339835165104 0.9999997505801909 1.9853791708636246
0.11816242683309246 -0.06672280714254378 0.16819439108778544 0.0034217657907744514 -0.0025902626453038987 0.9999907909867478 1.8906715503842864
0.1115534314123408 -0.06868821381389394 0.16867712761844286 -0.0032740349012589675 0.0028727585765610675 0.9999905139318203 1.7864445012162393
0.10451918698848074 -0.07053915880583626 0.17028439637195994 -0.027507434777635537 0.02638189396446695 0.9992734043808039 1.6658625270197134
0.09796549586726416 -0.07007202246811126 0.170357980765668 -0.008656083210346666 0.00831905618180409 0.9999279301668192 1.6164998486443058
0.09683873172684829 -0.06956592212639529 0.17485140753094 0.0050946473184726275 -0.005411779382507457 0.9999723782248267 1.5648814078715239
0.09145892782923835 -0.06951737486415153 0.17351077334171047 -0.004073257925152121 0.004638734786997982 0.9999809451731823 1.4945062495333836
0.08596839099143364 -0.06863620458639841 0.17512975707845133 -0.0025613006693854475 0.0030007161374995704 0.9999922176904893 1.4290719871889286
0.08107191520202357 -0.0679802344510925 0.17160920765382592 -0.00908450473381491 0.01133222175898207 0.9998945206989318 1.3731893336096226
0.06922478582924144 -0.06342722587125443 0.16989884781412784 -0.00757306169338142 0.013493939289654854 0.9998802740023606 1.0058385715941416
0.05674987157929285 -0.05956285075113239 0.16528531738366004 -0.07775183258582566 0.14896743222743597 0.9857805824143169 0.9868752239697475
0.05667958980277634 -0.05543196186381483 0.16659183305574882 0.0049036157778180635 -0.009072554434806234 0.9999468202401222 0.9694607573822341
0.0627973920840787 -0.0580535026517623 0.16447932667127207 0.050908591686612416 -0.08504630286608557 0.9950755959530391 1.0505313672192493
0.06304680841640449 -0.05954815335399287 0.17004075501499305 0.009656178816903942 -0.015774185047722697 0.9998289520196624 1.0426619100087424
0.05904880950030838 -0.05704664759728729 0.17045600558597543 0.008251351252155101 -0.014374903454226087 0.9998626292412348 1.0235318222975065
0.05341582602535269 -0.05100688592842407 0.16373518702164833 0.05162200390510114 -0.1194738789925718 0.9914944079273923 0.8794314545879469
0.048576270306561316 -0.0457982751309258 0.16325201119100383 0.06397566281431734 -0.16385680906861455 0.9844074667988457 0.7774155381566807
0.043059522562924286 -0.043608316191340625 0.16367970001229445 -0.020263926458536374 0.06663845335929815 0.9975713958501234 0.6969909071043833
0.041655087002953575 -0.039258290510721286 0.16652251921541414 0.018087455679973958 -0.06697247501643663 0.9975908637999837 0.5910574814083036
0.042507602327874365 -0.04148704383669903 0.17134766463157763 -0.002300463727369251 0.0008464084982324939 0.9999969957251338 0.6833816838944785
0.04769938228902094 -0.047652989254262264 0.17037613324272233 -0.0027977466258487637 0.005445310570345885 0.9999812604277194 0.7424078407640192
0.051725904021359057 -0.05152680468562018 0.17266013482067913 0.002246532372194921 -0.005307834800836756 0.9999833898530653 0.811686293581098
0.04709174652797794 -0.046653845724472565 0.17397720285648255 0.005587968434425486 -0.015070845417837975 0.9998708137690425 0.7293323290637763
0.04908233841705587 -0.051139655194015365 0.17843446612455022 -0.0399617601816931 0.09188596454242177 0.9949673498378175 0.7921527187121494
0.055430361242937015 -0.0559124971549046 0.17816953195054594 -0.02867421643353632 0.05986572004968206 0.9977945103451191 0.8961137699350142
0.06173914907724688 -0.06177989094767129 0.17997439976035798 -0.05847435455976754 0.10850972273621444 0.9923741179265653 0.9769267843689832
0.0678766766714449 -0.0624793619507108 0.17528430661987682 0.004695464192353025 -0.006248916384483541 0.9999694513634095 1.0189207622344532
0.07504843963649278 -0.06658061234047365 0.17769366896827277 -0.029396826045629144 0.04027922103929584 0.9987559316324037 1.1913816882362205
0.07297108090924918 -0.06547240595715768 0.18085863552408712 -0.019801190640035334 0.0285624120838239 0.9993958682450068 1.1796570723845954
0.06952452228625887 -0.06169293626699566 0.18189305044822907 0.04624443851096122 -0.07466398904980522 0.9961359047067706 1.142242874865697
0.08047579878539603 -0.06802533335416576 0.1805272488524214 -0.024931380536599594 0.026305356812452465 0.999343011416755 1.2955311535715857
0.08785214365253287 -0.07095034269308968 0.18073816364497003 -0.0560372693109897 0.06417840217562892 0.9963638678426425 1.3857896130337057
0.08782808491058706 -0.06750497000693644 0.1814112032630472 0.04378340243946528 -0.05198625098840516 0.9976875479723069 1.4032396010990027
0.1006787697877139 -0.06924163790021513 0.17535409481263647 0.016332469295846072 -0.01818671241233183 0.9997012023291415 1.5820992052232714
0.1074258720298878 -0.06939402480707604 0.17401086211969727 -0.006137172571967983 0.004686543404435561 0.999970185267411 1.629364949945668
0.11490780349141233 -0.06811089896644604 0.1741860634954777 -0.003441843276927961 0.002592323503715573 0.9999907167437653 1.7673008677290267
0.1243484983559355 -0.06449764491609451 0.1749401589009386 0.008875438652910373 -0.005765095566844399 0.9999439935625514 1.9147877431599172
0.12247814723208379 -0.0670144837705261 0.17957779561213968 -0.03800493588418238 0.02716413244945561 0.9989082714427325 1.9094703434002718
0.12437263688771011 -0.06403237852625368 0.1812486434127235 0.02099151507321813 -0.013617382236052144 0.9996869125861197 1.942981434188503
0.13289526836960813 -0.06168213265107406 0.17880094344746214 -0.024627348056459376 0.013576418177072551 0.9996045090920647 2.0540662194512804
0.13276514376928486 -0.059530847289413 0.18128292265747256 0.03659332774092634 -0.02141280927347473 0.999100805706743 2.0801328671140364
0.13832052310484166 -0.0558727373957957 0.1799387459968039 0.043456032485251025 -0.022809650870421798 0.9987949204255148 2.1684406442458464
0.14338686625432295 -0.053496293048114825 0.18459400112552207 -0.0005180179154776449 -0.0005377276798675688 0.9999997212531518 2.2357421091508463
0.1402956810489639 -0.056021041496854565 0.18670345259948012 -0.004278117253701146 0.0019461141179170076 0.999988955115307 2.208115849817475
0.13484705973455188 -0.05972827741114541 0.18763238617310832 -0.005268396707464056 0.0028791387682782507 0.9999819771156307 2.13199064328419
0.12822437562430974 -0.06320370213831866 0.18702194226081237 -0.004114014508638131 0.002528406644790975 0.999988340954264 2.0282656590596746
0.12198692400403935 -0.06520494083452041 0.18462345795241297 0.013285566224108326 -0.009560929570673756 0.9998660322042396 1.9442183855756066
0.11549300037514909 -0.06957294389319815 0.18159964492057595 -0.04777954372855958 0.03917280389658041 0.9980894782713475 1.8316326186997336
0.11383705166125062 -0.06861567910174675 0.18569289279446183 -0.017348774852585295 0.0141414105629097 0.9997494888812924 1.8157570972282742
0.10448725529150728 -0.06972741177599034 0.18172728964423787 -0.006740230257752503 0.005673425455353897 0.9999611900167302 1.666145395059415
0.09623840939662294 -0.06937844655985294 0.18110610642525568 0.005479725266515875 -0.0065316562012636475 0.999963654378634 1.5350744210996303
0.09744702661791436 -0.06983399970778303 0.18713826923352617 -0.003796753600127403 0.0034251234829718626 0.999986926510155 1.5692107926705283
0.10396231064268688 -0.06978538610462331 0.1868212515408678 -0.009325350138643447 0.008540515808622329 0.9999200455208979 1.6278376295333195
0.10346980007266861 -0.06959476584465364 0.19195671951737622 -0.0021734092398698716 0.0019797472678830196 0.9999956784371778 1.6358764637680305
0.1087251666038697 -0.06893568136802514 0.1916459651354475 0.002008285734541434 -0.0016697095709196819 0.9999965894233624 1.7051101510696434
0.11497127282992226 -0.06790248555166081 0.1894799275476826 -0.003034844782254612 0.002276054705951003 0.9999928046201749 1.7915324699641817
0.12060467719293853 -0.06599442300145839 0.19195250264663938 0.0036772773166008086 -0.002560008429498033 0.9999899619438076 1.8818384027331396
0.1266551224806218 -0.06362303765899664 0.1914782764037172 0.0050348808384367985 -0.0033035614581802897 0.9999818680639339 1.9636309926504538
0.13193501395469795 -0.062384257271888434 0.19605198048547334 -0.02924989420881071 0.017073819058481314 0.9994262996297084 2.0440209679697543
0.13714229607830672 -0.05824980134716158 0.19179570525495893 -0.002450508272953061 0.0017543774611600556 0.9999954585741517 2.128710213290343
0.14223167762661942 -0.05400272044426433 0.19154528008803307 0.010498872899481211 -0.004801030718967904 0.999933359665471 2.2165684350728725
0.14686673364616948 -0.050266254288942595 0.1885365536482207 0.004154541247907926 -0.0018656871914859972 0.9999896294453874 2.307712826438438
0.15230713722933478 -0.04459110157774599 0.18939879470625587 0.0006238423468559126 -0.00034788301560562823 0.9999997448990343 2.4229999503834634
0.15631135305375374 -0.03932493520839557 0.1868693405214897 -0.0007247724853904912 0.0001557035298367868 0.9999997252305898 2.5239654647977594
0.1588465917937639 -0.034365404688984094 0.1841324370159355 0.014787209377623784 -0.0038951306155613776 0.9998830763625867 2.5964164805319023
0.16356230806938796 -0.02800135500198649 0.18150191048439218 -0.02402405358968233 0.004260756761628817 0.9997023010881482 2.7125726413213247
0.16459279744194688 -0.021175623517579862 0.18118168573004564 0.017100290518605035 -0.002280672148941417 0.9998511782254037 2.809530570579496
0.16316061852746375 -0.02651404108507098 0.1855697781672092 0.002564911679338679 -0.00014017340779640678 0.999996700784304 2.757143551408682
0.16097788626694862 -0.0314583248469137 0.188712255183448 0.00016480954072122545 0.00011996104795679873 0.9999999792235809 2.677184996206954
0.16304711773275102 -0.026620998380751517 0.19026841372792605 0.003951120985682588 -0.0007199957701886364 0.9999919350920022 2.736456279499967
0.16577266287584203 -0.018676825167783268 0.18884712599662645 0.004794653662439202 -0.0006643328195945314 0.9999882849104593 2.8508160168206063
0.16745659157400702 -0.011672063320366004 0.18781218951457512 3.7505497814022176e-05 -0.00011783222700065354 0.9999999923544519 2.9525052300211443
0.16834618682560737 -0.004427034336474266 0.1858613519088679 -0.0007188334030455527 -2.9407656580220102e-05 0.9999997412068308 3.0473958745273566
0.16782405655282584 0.004418271425604152 0.1873065512347178 0.02344797030494755 0.0025373030693634584 0.999721838704003 3.267987595774387
0.16563927869126283 0.01610952462407374 0.18284172012807606 0.038891844437956784 0.0050169449683416115 0.999230831539639 3.363941645278495
0.16369071374781718 0.021977310669481425 0.17984724122603404 0.05030465115530845 0.008636768720633915 0.9986965746903357 3.4627895415646734
0.1601835497754865 0.030455714699830622 0.18012963722975348 0.0492839227953449 0.011246301304390744 0.9987214905372135 3.5852636968379348
0.15835735735677803 0.03595453972301805 0.18504722768882562 0.01181048795087364 0.0024878410302493995 0.9999271588577693 3.6668071444233936
0.15500275729229235 0.04077120545438287 0.18381869098391593 0.017525593791470635 0.005363543729325491 0.9998320288733102 3.748020818009521
0.15551419553782073 0.03972497057709709 0.18857832848830539 0.023985748986536895 0.007666376134224294 0.9996829049866379 3.7610716084528817
0.15276105459787434 0.04247276905234971 0.18818592996161074 0.047456723962355916 0.015001650013490199 0.9987606369133866 3.7546751541261525
0.14576461542105723 0.049873924172325945 0.18031523718748715 0.05594998677461673 0.02323998509962358 0.9981630638690703 3.9171530557954415
0.14141485165103862 0.05713811287393646 0.17960431638961535 -0.028378783579335116 -0.016008690382539364 0.9994690422793461 4.029091506616758
0.1384965292428219 0.05541065347439533 0.18086206203579291 0.07280437098791562 0.03677860391232397 0.9966678774091771 4.066553724136825
0.1318618303655946 0.0611858209704615 0.17526320326312048 0.026825357254859863 0.013942300407525062 0.9995429017643492 4.175660287006524
0.12727157476554943 0.06584787870683144 0.18009233645970515 0.034388778982459685 0.023859954178372073 -0.9991236732590724 2.0188499130120325
